# .PCD v0.7 - Point Cloud Data file format
VERSION 0.7
FIELDS x y z
SIZE 4 4 4
TYPE F F F
COUNT 1 1 1
WIDTH 473
HEIGHT 1
VIEWPOINT 0 0 0 1 0 0 0
POINTS 473
DATA ascii
-2.2210479 -0.17280792 1.1996219
-2.2210476 -0.17019659 0.91347277
-2.0557346 -0.17453907 0.91362935
-2.0557253 -0.55005395 1.2059063
-2.0557253 -0.82951725 1.1986459
-2.0557253 -1.119849 1.1965495
-2.0321062 -0.55096483 1.2118783
-2.0321062 -1.1279385 1.1969926
-2.0321062 -0.83500147 1.202369
-2.0321047 -0.17074728 0.92611885
-2.008491 -1.1324193 1.2131331
-2.0084898 -0.83725673 1.1982398
-2.0084858 -0.55963486 1.1209936
-2.0084901 -0.17263862 0.93277621
-1.9848663 -0.16886798 0.945903
-1.9848685 -0.54490584 1.0877992
-1.984871 -0.84116578 1.2146808
-1.984872 -1.1194775 1.1974952
-1.9612527 -1.1281681 1.2071834
-1.9612529 -0.82618725 1.214733
-1.9612482 -0.55450076 1.0774595
-1.9612461 -0.16487087 0.93268079
-1.9376262 -0.17322996 0.94037312
-1.9376291 -0.54960138 1.0614579
-1.937637 -0.8223325 1.2047385
-1.9376369 -1.1300017 1.1950804
-1.9140171 -0.82909483 1.2037866
-1.9140171 -1.1216116 1.208419
-1.9140213 -0.54847455 1.0732998
-1.914013 -0.16560547 0.93148041
-1.8903934 -0.17156063 0.92500776
-1.8904048 -0.55914795 1.0812285
-1.8904018 -0.83593225 1.1846513
-1.8904017 -1.1214803 1.1888742
-1.866783 -0.82885349 1.1995662
-1.8667825 -1.1260189 1.1996874
-1.8667836 -0.54960001 1.0620325
-1.8667806 -0.17196064 0.93353015
-1.8431669 -0.16858584 1.0650076
-1.8431681 -0.55289137 1.0886064
-1.843163 -0.81414431 1.2048213
-1.8431631 -1.1227115 1.1929632
-1.843163 -0.16141029 0.63807279
-1.8195477 -0.16747576 1.1962867
-1.8195474 -0.54663515 1.0679717
-1.8195474 -0.82476616 1.2082667
-1.8195477 -1.1246642 1.2062579
-1.8195485 -0.17471257 0.77083713
-1.7959288 -0.17171615 1.0361992
-1.7959287 -0.83174151 1.1955856
-1.7959287 -0.18331146 0.56394774
-1.7959287 -1.1197536 1.2021075
-1.7959254 -0.54675335 1.0715972
-1.7723091 -0.55020392 1.0712366
-1.77231 -0.82048619 1.2076176
-1.7723097 -0.1690899 1.1992998
-1.7723098 -1.1090997 1.1969181
-1.7723101 -0.17349391 0.64551735
-1.748702 -0.17153451 0.66496301
-1.748691 -0.54512417 1.0649942
-1.7486894 -0.82703364 1.1146929
-1.7486933 -1.1171241 1.1839036
-1.7250781 -0.16940294 0.65654844
-1.7250789 -0.74303675 1.0640118
-1.7250746 -1.1247913 1.1863259
-1.7014599 -0.1710282 0.66860086
-1.7014548 -0.55322212 0.96823293
-1.7014562 -1.1144438 1.2153921
-1.7014526 -0.83432633 1.0728593
-1.6778396 -0.17229898 0.67945385
-1.6778357 -0.55099773 0.83705151
-1.6778332 -0.83182019 1.0690882
-1.6778396 -0.55488384 1.1858099
-1.6778396 -1.1274955 1.2098522
-1.6542299 -0.17379205 0.66501236
-1.6542302 -0.54767984 0.84964019
-1.6542207 -1.1231766 1.2047347
-1.654227 -0.83540279 1.0723605
-1.6306098 -0.16987069 0.67441857
-1.6306019 -0.55778027 1.1997628
-1.6306077 -0.55990076 0.79188669
-1.6306024 -1.1148843 1.1882404
-1.6306081 -0.82496876 1.0691724
-1.6069902 -0.17158403 0.69499642
-1.60699 -0.67657542 0.95886844
-1.6069863 -1.1162565 1.1892931
-1.5833726 -0.16755819 0.66160697
-1.583372 -0.55548942 0.78747517
-1.5833719 -0.83051687 1.0742759
-1.5833666 -0.55542678 1.2028412
-1.5833666 -1.1207275 1.1834685
-1.5597521 -0.55819595 0.8845855
-1.5597516 -0.17288828 0.82082176
-1.5597517 -0.82832861 1.0774541
-1.5597477 -1.1115608 1.1912849
-1.5597481 -0.17487203 0.33959043
-1.5361326 -0.55335987 0.87904906
-1.5361325 -0.1753379 1.2994773
-1.5361326 -0.82920057 1.0742862
-1.5361323 -1.1190637 1.1965632
-1.5361323 -0.17446426 0.36090606
-1.5361325 -0.163298 0.6319657
-1.5361326 -0.17440931 0.91983223
-1.5125123 -0.54465252 0.79713923
-1.5125324 -0.16998264 0.91919684
-1.5125124 -0.82947224 1.0738403
-1.5125126 -0.55302191 1.1935049
-1.5125126 -1.1075824 1.1931113
-1.4888921 -0.55873299 0.86629391
-1.4888927 -0.83711606 1.0527626
-1.488894 -1.1142046 1.2014191
-1.488892 -0.17060925 0.6481384
-1.4652741 -0.54860854 0.78744984
-1.4652892 -0.1683486 0.71230066
-1.465276 -0.83395028 1.0377767
-1.4652781 -0.54524577 1.1977526
-1.4652781 -1.1260488 1.2065721
-1.4416524 -0.17749637 0.71318138
-1.4416614 -0.8306573 1.080833
-1.4416592 -0.54543251 0.92696792
-1.4416586 -1.1142206 1.1894646
-1.41804 -0.55585998 0.69094819
-1.4180387 -0.82760292 0.91871691
-1.4180499 -0.16628617 0.71570551
-1.418044 -1.1264091 1.1456717
-1.4180429 -0.54553616 1.2082126
-1.3944129 -0.69143081 0.77226508
-1.394412 -0.17250881 0.69377881
-1.3944205 -1.1205107 1.1194822
-1.3944242 -0.8513062 1.2002631
-1.2054749 -0.28390273 0.72004867
-1.2054806 -0.8357802 1.1993178
-1.2054766 -0.83179247 0.81735861
-1.2054777 -1.1275208 1.1110677
-1.1818767 -0.25544959 0.72364736
-1.181862 -0.83364952 0.92212796
-1.181864 -1.1207747 1.1441501
-1.1582438 -0.83489621 1.0605627
-1.1582452 -0.16786605 0.69219202
-1.1582443 -1.1100477 1.1974369
-1.1582457 -0.55335516 0.92318279
-1.1346252 -0.5525791 0.88786256
-1.1346345 -0.17310406 0.69490051
-1.1346277 -0.82426983 0.93179411
-1.1346276 -0.83493882 1.1955464
-1.1346276 -1.1262857 1.2056664
-1.1110078 -0.83233351 1.0331081
-1.1110139 -0.5507403 0.85936922
-1.1110079 -1.1128235 1.204432
-1.1110008 -0.17286369 0.64949799
-1.0873908 -1.1248434 1.199084
-1.0873946 -0.63233817 0.87790376
-1.0873896 -0.54857975 1.1959126
-1.0873989 -0.16983894 0.92060679
-1.0637767 -0.662844 0.97538978
-1.0637726 -0.17264564 1.1197813
-1.0637735 -0.83565402 0.91516924
-1.0637735 -1.1323813 1.1912971
-1.0637736 -0.17242077 0.36022854
-1.0637729 -0.17112835 0.63194585
-1.0401577 -0.17151867 0.79464149
-1.0401585 -0.54833347 0.87335962
-1.0401542 -1.1194017 1.2010864
-1.040158 -0.82823277 1.0746582
-1.0401541 -0.17890435 0.33945623
-1.0165399 -0.17040272 0.56563848
-1.0165398 -0.55933577 0.8628605
-1.0165372 -0.16130114 1.1870363
-1.0165397 -0.83188516 1.0674901
-1.0165373 -1.1119792 1.2027558
-0.99291986 -0.17677756 0.68648535
-0.9929198 -0.55450898 0.79306471
-0.9929198 -0.82991493 1.0760891
-0.99291968 -0.5520314 1.1814548
-0.99291968 -1.1239688 1.2121603
-0.96930015 -0.55504107 1.1819556
-0.96929944 -0.16513431 0.67687595
-0.96930009 -1.1221758 1.2076435
-0.96929944 -0.68995339 0.92865187
-0.94568074 -0.16954534 0.66247684
-0.9456805 -0.5464896 0.85739082
-0.94568151 -0.82591271 1.081732
-0.94568312 -1.1234137 1.2037636
-0.92206156 -0.17454033 0.50721735
-0.92206007 -0.69693571 0.99345571
-0.92206502 -0.16809119 1.0677108
-0.92206568 -1.1302407 1.1988596
-0.89844412 -0.69556582 1.0019574
-0.89844674 -0.1726843 1.0313534
-0.89844793 -1.1231854 1.2151046
-0.89844877 -0.1647868 0.50057644
-0.87482738 -0.1676662 0.68125093
-0.87483048 -0.54277456 1.0711793
-0.87482899 -0.82952636 1.0830712
-0.87482905 -1.1168272 1.2040854
-0.85120744 -0.17285861 0.57800943
-0.85121149 -0.17392439 1.2090163
-0.85121149 -0.55150265 0.9247185
-0.85121149 -0.83644611 1.1182359
-0.85121149 -0.55323625 1.1968743
-0.85121149 -1.1291504 1.1965164
-0.82759392 -0.55960971 0.9353916
-0.82759374 -0.83657503 1.2071912
-0.82759428 -0.17076744 0.74746639
-0.8275938 -0.55718702 1.1904272
-0.82759386 -1.1213207 1.2078329
-0.80397522 -0.16911724 1.1988348
-0.80397522 -1.1165864 1.2012765
-0.80397445 -0.17134799 0.67655766
-0.80397528 -0.83001232 1.2186097
-0.80397356 -0.55801594 1.0861578
-0.78035742 -0.16764425 0.78999853
-0.78035748 -0.18084082 1.2017059
-0.78035748 -1.119499 1.1990554
-0.78035748 -0.82128358 1.2005391
-0.78036046 -0.54998118 1.0658865
-0.75674093 -0.5498296 1.077253
-0.7567398 -0.1782247 0.90837771
-0.75674027 -0.8337689 1.1907239
-0.75674033 -1.1247677 1.2018405
-0.73312116 -1.1141149 1.1959311
-0.73312098 -0.83162135 1.1946956
-0.73312289 -0.54905689 1.0725988
-0.733123 -0.1748143 0.92956126
-0.70950347 -0.83065552 1.1888458
-0.70950341 -1.1189431 1.1983168
-0.70950329 -0.55472302 1.0695242
-0.70950323 -0.17418098 0.93250209
-0.68588626 -0.8285194 1.1952462
-0.68588626 -1.1143675 1.1996317
-0.68588388 -0.55171454 1.0668365
-0.68588328 -0.16768682 0.9307729
-0.66226459 -0.1659869 0.93039352
-0.66226673 -0.55103827 1.0749348
-0.6622684 -0.83195394 1.1985079
-0.6622684 -1.1225991 1.1935252
-0.63864994 -0.83727688 1.1881315
-0.63864982 -1.1175618 1.2038985
-0.63865203 -0.55495965 1.0666109
-0.63865006 -0.17238253 0.92032641
-0.6150322 -0.82658237 1.2173023
-0.6150322 -1.123871 1.2195884
-0.61503476 -0.55665624 1.0908411
-0.61503309 -0.17259336 0.94988579
-0.5914132 -0.16587484 0.92515785
-0.59141499 -0.54949719 1.1358342
-0.59141451 -0.83215147 1.2005751
-0.59141433 -1.1198924 1.2038058
-0.56779617 -0.54733801 1.2024947
-0.56779653 -1.1188141 1.2179166
-0.56779617 -0.82620013 1.2144957
-0.56779718 -0.16676961 0.93464631
-0.54417968 -0.17535722 0.91096485
-0.54417926 -0.55729276 1.2041638
-0.54417944 -0.82569653 1.2008302
-0.54417932 -1.1215701 1.2006274
-0.44970694 -0.16480453 1.1964605
-0.44970691 -0.16719049 0.92477703
-1.2961566 -0.94827324 0.92520058
-0.95315552 -0.94827414 1.1028281
-1.6538498 -0.94827425 1.1053803
-1.2991699 -0.91823661 0.80893028
-1.6457897 -0.91823161 1.0885253
-0.95574301 -0.91823149 1.0875806
-1.310992 -0.91823238 1.2019829
-1.30136 -0.73797625 0.84482044
-1.6534094 -0.73797643 1.0886159
-0.96097714 -0.73797643 1.0874031
-1.3000276 -0.70793259 0.9379521
-1.6461625 -0.70793432 1.1065772
-0.95281959 -0.70793438 1.1106412
-1.2975208 -0.70793498 0.63167816
-1.3041222 -0.6778931 0.77149081
-1.3083265 -0.67789185 1.1849552
-1.2970738 -0.6478467 0.55344039
-1.5881176 -0.64784718 0.81039649
-1.0147173 -0.64784718 0.81003445
-0.70009208 -0.64784724 1.0977454
-1.9033189 -0.64784735 1.0949478
-1.2974404 -0.64784998 1.196507
-1.2933987 -0.64784992 0.93195224
-1.2989675 -0.46759418 0.91666383
-1.2918564 -0.46759421 1.1906821
-1.2968808 -0.46759465 0.50474399
-1.0137575 -0.46759567 0.80306196
-1.9047773 -0.46759567 1.085063
-0.69579458 -0.46759552 1.0856889
-1.5842527 -0.46759591 0.80089653
-1.2991871 -0.43755001 0.71008712
-1.5853721 -0.4375526 0.81504273
-1.0114977 -0.43755269 0.8145256
-1.8986797 -0.43755263 1.1026947
-0.69829333 -0.43755263 1.1041301
-1.300238 -0.40750891 1.3160324
-1.3026595 -0.40750894 0.35656342
-1.2988545 -0.40750894 0.63536167
-1.2959074 -0.40750894 0.90978503
-1.3040756 -0.28734565 0.65553057
-0.62426215 -0.28733855 0.81769097
-0.61591339 -0.28733855 1.1048223
-1.9919769 -0.28733858 0.81870234
-1.9941223 -0.28733858 1.1026434
-1.29933 -0.25729418 0.64301485
-0.6135149 -0.25729659 1.0895672
-1.990675 -0.25729671 1.0893787
-1.991345 -0.25729671 0.80140185
-0.61307919 -0.2572968 0.79895973
-1.6824813 -0.077040993 0.51711595
-0.92431277 -0.077041015 0.51562166
-1.9897289 -0.077040926 0.80189401
-0.61147338 -0.077040918 0.80337238
-1.983871 -0.077041008 1.08919
-0.61603105 -0.077040941 1.0882063
-1.299531 -0.077041514 0.67664552
-1.6692263 -0.046998516 0.53868061
-1.3041791 -0.046997976 0.68070114
-0.92321885 -0.046998516 0.54157871
-1.9884102 -0.046998516 0.82427603
-0.61608708 -0.046998516 0.82819217
-1.9864351 -0.046998516 1.1099296
-0.61863256 -0.046998516 1.1133476
-1.3012455 0.073171631 0.79277575
-1.305818 0.073171645 1.1885753
-1.3049519 0.073171645 0.33421445
-1.305915 0.10321426 1.1888005
-1.2997001 0.10321426 0.3498598
-1.2932167 0.10321426 0.77018368
-1.297127 0.1332569 1.2049555
-1.3007557 0.1332569 0.34426486
-1.2929903 0.1332569 0.65113539
-1.3162223 0.1332569 0.91769904
-1.2981465 0.16329949 1.1946175
-1.3015313 0.1632995 0.35152024
-1.3014516 0.16329953 0.77427155
-1.2933629 0.19334206 1.203586
-1.3020804 0.19334206 0.35279197
-1.2982571 0.19334204 0.61439937
-1.3026344 0.19334202 0.92320591
-1.2934849 0.22338474 1.0222176
-1.3050178 0.22338466 0.36317551
-1.2985033 0.22338463 0.6267969
-1.3038836 0.25342697 1.070922
-1.2959262 0.25342733 0.35985768
-1.3026485 0.25342736 0.64547741
-1.2972777 0.28346968 1.1938231
-1.3025476 0.28346977 0.37685618
-1.3046498 0.28346971 0.624708
-1.2925351 0.28346953 0.91911381
-1.3000076 0.3135123 1.2012737
-1.2917738 0.31351236 0.6319046
-1.2903533 0.31351233 0.91029358
-1.3059115 0.343555 1.1916373
-1.2913097 0.34355497 0.62978709
-1.3062918 0.34355485 0.90355706
-1.3049072 0.37359741 1.1964077
-1.2982833 0.37359697 0.76841348
-1.3031453 0.43368188 0.91460669
-1.2966118 0.43368185 1.194216
-1.3004199 0.43368173 0.63159138
-1.2991083 0.46372485 1.1833644
-1.293481 0.46372491 0.93584949
-1.2931144 0.52381033 1.1974456
-1.3017818 0.52381039 0.9214195
-1.3075584 0.58389544 1.1969852
-1.3031287 0.58389562 0.90688103
-1.3052872 0.61393744 1.2090051
-1.2932943 0.61393744 0.91004068
-1.3059235 0.64398068 1.1933328
-1.3068844 0.64398074 0.9284963
-1.3008635 0.7641499 1.2104131
-1.3042009 0.76415002 0.91133875
-1.288992 0.8542785 1.202907
-1.2988991 0.8542785 0.93877691
-1.3066576 0.88432091 1.2020812
-1.3013133 0.88432181 0.90764868
-1.2996871 -0.17449692 0.11204109
-1.2999634 -0.17631254 0.13008618
-1.3177117 -0.18650505 0.14813215
-1.3025863 -0.16891836 0.1661777
-1.308226 -0.16104788 0.18422318
-1.2919092 -0.16210246 0.20227031
-1.2935306 -0.17127743 0.22031415
-1.2964789 -0.17028575 0.23836397
-1.3032348 -0.17114332 0.27445039
-1.3013277 -0.16830032 0.292496
-1.3027074 -0.17225324 0.31054276
-1.3100854 -0.16980425 0.32858747
-1.2990092 -0.17654283 0.34663388
-1.2957969 -0.16740997 0.36468342
-1.2971586 -0.17057499 0.38272241
-1.3051491 -0.16867109 0.40077174
-1.2906611 -0.16922946 0.41881734
-1.3035859 -0.20194839 0.43686193
-1.2977962 -0.27160731 0.47295132
-1.1908512 -0.037897445 0.4729526
-1.3052475 -0.28279468 0.49100867
-1.1678164 -0.29576057 0.49099845
-1.3015947 -0.82421178 0.74363703
-1.5956933 -0.55061632 0.74363697
-1.9933867 -0.17284313 0.74363697
-1.010579 -0.55527848 0.74363697
-0.61609662 -0.17744552 0.74363697
-1.3036592 -0.15766522 0.74363703
-0.61277783 -0.17286418 0.76168168
-1.9915003 -0.17016047 0.76168162
-1.1213018 -0.31792989 0.7616812
-1.5846211 -0.530918 0.76168162
-1.4309803 -0.1761567 0.76168144
-1.2967231 -0.84024882 0.76168114
-1.3363444 -0.20409444 0.77972597
-1.1785442 -0.043189835 0.77972788
-1.5862811 -0.55330133 0.77972478
-1.0131105 -0.54990792 0.77972478
-0.61294812 -0.17369217 0.77972478
-1.9873699 -0.16896421 0.77972478
-1.2991519 -0.82885295 0.77972448
-1.2998791 -0.82964647 0.79777473
-1.5846683 -0.53257918 0.79777431
-1.9880385 -0.16854393 0.79777426
-1.0151451 -0.54903924 0.79777431
-0.61738008 -0.17318299 0.7977742
-1.3081471 -0.28881595 0.79777449
-1.3094964 -0.051254187 0.79777431
-1.6520633 -0.83717841 1.0323668
-0.61331278 -0.15962553 1.0323668
-0.94819599 -0.82980287 1.0323666
-1.3005388 -1.1233509 1.0323665
-1.9824871 -0.16676146 1.0323665
-1.8954915 -0.54890382 1.0323665
-0.69812238 -0.55184919 1.0323663
-1.2830772 -0.30160171 1.032366
-1.1741011 -0.044091284 1.0323665
-1.4277227 -0.043954756 1.0323665
-1.9923965 -0.17321892 1.0504115
-0.83516425 -0.69915146 1.0504135
-1.6402954 -0.82028729 1.0504123
-0.61229312 -0.17569472 1.0504121
-1.9066638 -0.56142873 1.0504121
-1.3022426 -1.1338465 1.0504119
-1.421556 -0.29731676 1.0504113
-1.1805562 -0.28689793 1.0504113
-1.1757365 -0.047170311 1.0504113
-1.4226723 -0.032813564 1.0504113
-1.9870629 -0.16955462 1.0684552
-0.69593 -0.55367857 1.0684549
-1.6521242 -0.83040351 1.0684551
-0.61587715 -0.16869681 1.068455
-1.9038429 -0.55180293 1.0684549
-0.95445991 -0.83279675 1.0684556
-1.3019015 -1.1250763 1.0684547
-1.4166068 -0.17085683 1.0684581
-1.1676978 -0.29283965 1.0684576
-1.1776826 -0.050167944 1.0684577
-1.9850372 -0.19089663 1.0865023
-0.62841994 -0.170765 1.0865023
-0.82583636 -0.69513643 1.0865022
-1.7724761 -0.70253414 1.0865022
-1.3088982 -1.1229435 1.0865023
-1.1700901 -0.29569611 1.0865024
-1.4247683 -0.16593483 1.0865022
-1.1720306 -0.024529366 1.0865024
-1.3080423 -0.1572818 1.3210956
-1.2911808 -0.15530802 1.3391417
-1.284992 -0.17587605 1.3571869
-1.2863182 -0.17228837 1.3752303
-1.3016045 -0.16161393 1.3932791
-1.2929622 -0.14945628 1.4113252
-1.3057966 -0.1558982 1.4293685
-1.3156792 -0.16430949 1.4474168
-1.3005447 -0.17669697 1.465459
-1.2779033 -0.17663692 1.4835054
-1.3160311 -0.15246406 1.5015516
-1.3001468 -0.17429051 1.5196061
