# .PCD v0.7 - Point Cloud Data file format
VERSION 0.7
FIELDS x y z
SIZE 4 4 4
TYPE F F F
COUNT 1 1 1
WIDTH 378
HEIGHT 1
VIEWPOINT 0 0 0 1 0 0 0
POINTS 378
DATA ascii
-2.213814 -0.17275047 1.2004439
-2.2138138 -0.1687334 0.91672951
-2.1757472 -0.17144214 1.2183925
-2.1757469 -0.17392153 0.91377765
-2.137665 -0.16909333 1.2056128
-2.137665 -0.17188501 0.90748233
-2.0615213 -0.17336294 0.93194687
-2.0615137 -0.55082196 1.2059175
-2.0615134 -0.82933277 1.1987791
-2.0615137 -1.1195356 1.195528
-2.023437 -0.17095207 0.9277063
-2.0234354 -0.55825096 1.1506339
-2.0234339 -0.83303362 1.2009695
-2.0234332 -1.132183 1.200079
-1.9853526 -0.84109151 1.2125576
-1.9853518 -0.54648095 1.0848336
-1.9853524 -1.121541 1.2013266
-1.9853517 -0.17077835 0.93903178
-1.9472679 -0.16966686 0.93798834
-1.9472691 -0.55312008 1.0744574
-1.9472771 -0.82548356 1.208269
-1.9472773 -1.1279632 1.2048153
-1.909196 -1.1248857 1.2031854
-1.909196 -0.82955545 1.1945354
-1.9091923 -0.55368245 1.0766156
-1.9091872 -0.16554496 0.92864865
-1.8711061 -0.17420314 0.93346065
-1.8711119 -0.55113947 1.067138
-1.8711206 -0.82886636 1.1982383
-1.8711208 -1.123083 1.1959503
-1.8330424 -0.82061213 1.2087328
-1.8330418 -1.1218609 1.197728
-1.8330512 -0.54841149 1.079236
-1.8330415 -0.1676935 1.2065514
-1.8330418 -0.16806534 0.91753972
-1.8330419 -0.16445969 0.6351701
-1.7949648 -0.17513813 0.67717499
-1.7949663 -0.17425805 1.2094697
-1.7949677 -0.54897332 1.0701694
-1.7949665 -0.82817495 1.2043018
-1.7949666 -1.1192759 1.206509
-1.756886 -1.1140064 1.1869692
-1.7568911 -0.82603258 1.1262482
-1.7568854 -0.5444386 1.202528
-1.7568858 -0.54743207 0.92033738
-1.7568858 -0.17947672 0.91712439
-1.7568935 -0.17317887 0.5141837
-1.7568849 -0.16492626 1.2033924
-1.7188108 -0.17035238 0.50659657
-1.71881 -0.17240787 1.1928505
-1.7188102 -0.55118954 0.92655849
-1.7188108 -0.83307296 1.0762494
-1.71881 -0.55323821 1.2039764
-1.7188101 -1.1178256 1.2017448
-1.71881 -0.16685602 0.9170866
-1.6807307 -0.17490552 0.92870796
-1.6807262 -0.83054125 1.0660597
-1.6807299 -1.1255655 1.2095939
-1.6807264 -0.55118364 0.82096297
-1.6807295 -0.55501473 1.1985914
-1.6807263 -0.1710685 0.50717419
-1.6807303 -0.17603502 1.1941086
-1.6426443 -0.17206211 0.49212879
-1.6426436 -0.55202168 0.78628582
-1.6426539 -0.17407961 1.2003845
-1.642644 -0.8298986 1.0724863
-1.6426541 -0.55345362 1.1976323
-1.6426539 -1.1199652 1.2001467
-1.6426539 -0.17484207 0.91636121
-1.6045741 -1.1169869 1.1865083
-1.6045736 -0.55214453 1.2052504
-1.6045702 -0.82784438 1.0766853
-1.6045738 -0.16534711 0.91951072
-1.6045736 -0.1603746 1.2119434
-1.60457 -0.55250227 0.78085297
-1.60457 -0.17480913 0.50691944
-1.5664977 -1.1146393 1.1848613
-1.5664977 -0.56296605 1.2014431
-1.5664889 -0.83082056 1.0770721
-1.5664977 -0.17817104 1.2092689
-1.5664977 -0.16348761 0.91070306
-1.5664893 -0.55207264 0.79391992
-1.5664924 -0.16830342 0.50365502
-1.5284171 -1.1155463 1.1980308
-1.5284173 -0.55677336 1.2059405
-1.5284207 -0.54855353 0.79081339
-1.5284162 -0.83073801 1.0764533
-1.5284345 -0.17066644 0.89923292
-1.4903516 -0.55328041 0.79636735
-1.490317 -0.17150427 0.69995183
-1.4903413 -0.83016783 0.91090226
-1.4903413 -0.55758482 1.1986802
-1.4903413 -0.83234698 1.1992842
-1.4903413 -1.1165586 1.2014362
-1.4522649 -0.54638398 0.6345827
-1.452257 -0.17195009 0.71662778
-1.4522657 -0.5492208 0.92239386
-1.4522647 -0.8360998 0.92168105
-1.4522645 -0.54994911 1.1989845
-1.4522645 -0.83071482 1.2096462
-1.4522655 -1.1186562 1.1939955
-1.4141994 -0.17012621 0.71029007
-1.414185 -0.83468133 1.2066185
-1.4141849 -0.54491478 1.2074964
-1.4141849 -0.55040711 0.90435863
-1.4141847 -0.82833862 0.83149904
-1.4141848 -1.1226323 1.1360259
-1.4141848 -0.55423522 0.56829053
-1.3380305 -0.47790799 0.84100217
-1.3380352 0.47325313 0.91067111
-1.3380287 0.23558758 0.62729073
-1.2999524 -0.48102948 0.84687811
-1.2999555 0.49229547 0.91645461
-1.2999539 0.24397632 0.62334043
-1.2618718 0.4668504 0.91965318
-1.2618736 -0.48167926 0.84763324
-1.2618722 0.2509937 0.63846821
-1.1857001 -0.16880384 0.7050488
-1.1857164 -0.83945143 1.1938421
-1.1857163 -0.55200702 1.1992573
-1.1857182 -1.1202341 1.1366405
-1.1857164 -0.55046517 0.92262584
-1.185719 -0.55219007 0.57191831
-1.1857229 -0.83276284 0.83979219
-1.1476421 -0.54955399 0.6380676
-1.1476144 -0.17084169 0.69585043
-1.1476421 -0.56080878 0.91244918
-1.1476421 -0.82873929 0.91730481
-1.1476421 -0.5567764 1.2024026
-1.147642 -0.83673155 1.203933
-1.147642 -1.1210545 1.1958054
-1.1095594 -0.55071557 0.79199195
-1.1095915 -0.17131557 0.69944119
-1.1095635 -0.83609694 0.91816896
-1.1095638 -0.5476861 1.2013699
-1.1095636 -0.82752186 1.2006959
-1.1095638 -1.1167818 1.206082
-1.0714796 -0.54694557 0.78948152
-1.0714867 -0.17227188 0.88961738
-1.0714812 -0.83230639 1.075047
-1.071486 -0.55488306 1.2139976
-1.0714858 -1.1289293 1.1950343
-1.0334095 -0.17195895 0.49700835
-1.0334102 -0.55321223 0.79195833
-1.0334073 -0.16581434 1.1926426
-1.0334104 -0.83026809 1.0694333
-1.0334073 -0.54620564 1.203189
-1.0334074 -1.1145551 1.1992922
-1.0334074 -0.17096581 0.91551203
-0.99532795 -0.17381066 0.58300465
-0.99533069 -0.55446941 0.7920571
-0.99533027 -0.16984212 1.1930959
-0.99533069 -0.83033049 1.0738289
-0.99533027 -0.55391681 1.1907058
-0.99533027 -1.120972 1.2092001
-0.95724696 -0.16609086 0.49336809
-0.9572469 -0.55029863 0.78120649
-0.95725191 -0.17049649 1.1983998
-0.95724702 -0.82732099 1.0729831
-0.95725209 -0.55270326 1.1963654
-0.95725203 -1.1262624 1.2061349
-0.95725203 -0.17217457 0.90997446
-0.91916758 -0.17175503 0.50640947
-0.91916835 -0.55074334 0.82250017
-0.91917402 -0.16658635 1.2059733
-0.91916841 -0.83127403 1.077921
-0.91917396 -0.54332578 1.2007146
-0.91917402 -1.1260718 1.1997387
-0.91917402 -0.17459764 0.91010648
-0.88109618 -0.16727179 0.50422174
-0.88109571 -0.16851494 1.1966038
-0.88109577 -0.54125857 0.92385703
-0.88109726 -0.8308695 1.0767747
-0.88109577 -0.54639208 1.1964778
-0.88109577 -1.1182764 1.211921
-0.88109577 -0.16713831 0.91467565
-0.84301752 -0.17116228 0.5115453
-0.84301752 -0.17131855 1.2076983
-0.84301752 -0.5587039 0.92961353
-0.84301752 -0.83783442 1.1288189
-0.84301752 -0.55340314 1.19056
-0.84301752 -1.1261077 1.2032706
-0.84301752 -0.17345588 0.91408122
-0.80494231 -0.17264277 0.56418264
-0.80493999 -0.5580833 1.0770473
-0.80493933 -0.17244451 1.2026314
-0.80493933 -0.82545155 1.2171394
-0.80493933 -1.1180403 1.2022681
-0.80493933 -0.167935 0.92186201
-0.76686114 -0.82997769 1.1928079
-0.76686114 -1.1239878 1.1967729
-0.76686513 -0.54903859 1.0757393
-0.76686114 -0.17764813 1.2090858
-0.76686114 -0.17588888 0.92049664
-0.76686114 -0.17405078 0.63381624
-0.72878325 -1.1160617 1.1983881
-0.72878319 -0.83009875 1.1927371
-0.72878748 -0.54897481 1.0729195
-0.72878832 -0.17366199 0.93373084
-0.6907053 -0.83319771 1.1943035
-0.69070512 -1.1164089 1.1999025
-0.69070452 -0.55446589 1.0664692
-0.69070822 -0.17031851 0.93082762
-0.65262657 -0.16832159 0.92280436
-0.65262824 -0.55035704 1.0758945
-0.6526283 -0.83207905 1.194441
-0.65262824 -1.1202282 1.2000636
-0.61455554 -0.17159127 0.94503927
-0.61455053 -0.55762285 1.0888717
-0.61455035 -0.82956529 1.2051412
-0.61455023 -1.1211146 1.2149577
-0.57647544 -0.16558024 0.9266659
-0.57647133 -0.54759932 1.159436
-0.57647264 -0.8307752 1.2110541
-0.57647294 -1.1188813 1.2071314
-0.53839165 -0.17392196 0.93316752
-0.53839356 -0.55709982 1.202356
-0.53839344 -0.82510084 1.2000694
-0.53839362 -1.1213331 1.2008218
-0.46223837 -0.17231858 1.1976432
-0.46223837 -0.17103551 0.92436248
-0.42416039 -0.17043521 0.91591406
-0.4241603 -0.17185986 1.2047504
-0.38608292 -0.17157045 0.92158896
-0.38608319 -0.17042293 1.1995411
-1.2931589 -1.1107516 1.1495086
-1.6444784 -1.1107504 1.1016999
-1.3000941 -0.96544063 0.9270938
-1.2936409 -0.96544045 1.2006457
-1.3007648 -0.72326142 1.212855
-1.3026719 -0.72326529 0.79292274
-1.6500725 -0.72326332 1.0967251
-0.95951861 -0.72326303 1.0971601
-1.3027778 -0.67482501 0.58006281
-1.5899234 -0.67482746 0.81753314
-1.0107239 -0.67482746 0.81507832
-0.70100284 -0.67482746 1.102152
-1.9038079 -0.67482746 1.1015953
-1.300154 -0.6748274 1.1922363
-1.3014551 -0.6748274 0.91966951
-1.2963245 -0.43264762 0.49888766
-1.5825601 -0.43264753 0.8131153
-1.0124298 -0.43264753 0.8121686
-0.69957274 -0.43264753 1.1038303
-1.8982803 -0.43264753 1.0994502
-1.3015907 -0.43264747 1.2114605
-1.3000853 -0.43264747 0.91994476
-1.3028722 -0.2873472 0.69094706
-1.6856107 -0.2873385 0.52887875
-0.91923702 -0.2873385 0.52925438
-0.61961991 -0.2873385 0.81266284
-1.9961362 -0.2873385 1.0992823
-0.61640507 -0.2873385 1.0999699
-1.9900143 -0.2873385 0.8139379
-1.3004898 -0.045158539 0.68861949
-1.6770864 -0.045159236 0.53124732
-0.92487568 -0.045159243 0.53395164
-0.61661172 -0.045159239 1.1058836
-1.9872447 -0.045159243 1.1032462
-0.60980487 -0.045159239 0.82055861
-1.9915378 -0.045159247 0.81482971
-1.2922919 0.10014845 0.92341465
-1.3040107 0.10014845 0.62557435
-1.3017923 0.10014848 1.1901937
-1.2979192 0.10014847 0.34653232
-1.2951187 0.1485845 0.64187598
-1.2961808 0.1485845 1.1994381
-1.3069156 0.1485845 0.91899598
-1.3045136 0.1485845 0.34673718
-1.2956699 0.19702093 1.2000974
-1.3005871 0.19702099 0.35564318
-1.2989208 0.19702095 0.62080789
-1.3032838 0.19702092 0.91767216
-1.3007598 0.24545667 1.211266
-1.3004599 0.24545667 0.35956371
-1.3019041 0.24545667 0.63821894
-1.2977453 0.24545667 0.90771556
-1.2918046 0.29389223 0.91863292
-1.2997434 0.2938922 1.1972777
-1.2989666 0.2938922 0.63094068
-1.3024889 0.29389229 0.37810895
-1.3039255 0.34232804 1.1957328
-1.2920729 0.34232813 0.63070637
-1.2973949 0.34232822 0.90240103
-1.306277 0.39076504 1.1989024
-1.2902048 0.39076507 0.64016855
-1.2988933 0.39076498 0.90981174
-1.2976958 0.43920112 1.1939465
-1.3006073 0.43920109 0.63236511
-1.2986538 0.43920112 0.9231708
-1.2971597 0.48763606 1.2034651
-1.3040595 0.48763612 0.91789383
-1.290182 0.53607196 1.1924942
-1.300817 0.53607196 0.91448575
-1.308342 0.5845083 1.2047224
-1.3006066 0.5845086 0.90599358
-1.3052609 0.63294399 1.2007862
-1.301469 0.63294423 0.91844404
-1.2994467 0.68138063 1.2056518
-1.2946286 0.68138075 0.92631185
-1.2973533 0.72981548 1.1949656
-1.2976506 0.72981459 0.91926771
-1.3015512 0.77825171 1.2018322
-1.3057952 0.77825171 0.91512519
-1.2972147 0.82668906 1.2038902
-1.3064845 0.82668883 0.91571599
-1.3030686 0.87512285 1.2030201
-1.3024781 0.87512302 0.91334587
-1.2989037 -0.17478985 0.11756436
-1.3146528 -0.17841837 0.14665851
-1.3078793 -0.16610266 0.17575294
-1.292326 -0.16288787 0.20484513
-1.2961166 -0.17021853 0.23394556
-1.2993484 -0.16856936 0.26303184
-1.3043033 -0.17142372 0.29212916
-1.3054613 -0.17212901 0.32122535
-1.2995522 -0.16731676 0.3503136
-1.2965512 -0.16938362 0.37941206
-1.2960798 -0.17537107 0.40850559
-1.3000113 -0.19959974 0.43759954
-1.0048889 -0.12644054 0.46669075
-1.4221174 -0.052933477 0.46669188
-1.2888151 -0.55506384 0.46669111
-1.6806818 -0.17343783 0.46669114
-1.4300017 -0.28991982 0.46669161
-1.1780804 -0.29767895 0.46669176
-1.1176389 -0.35882497 0.49578822
-1.6510259 -0.15467384 0.49578795
-1.4179804 -0.29797187 0.49578619
-1.1648738 -0.046769928 0.49578598
-1.1903993 -0.29606411 0.75763065
-1.5884638 -0.54181373 0.75763011
-1.0302631 -0.55308616 0.75763023
-1.4300586 -0.16584355 0.75762999
-1.1839013 -0.023994351 0.75763047
-1.9883388 -0.17111748 0.75763017
-0.61356705 -0.17687242 0.75763017
-1.2993404 -0.83854288 0.75762981
-1.2981046 -0.82844925 0.78672975
-1.586369 -0.54866832 0.78672099
-1.9883353 -0.16944656 0.78672087
-1.0129646 -0.54888636 0.78672069
-0.61362135 -0.17529823 0.78672087
-1.1783917 -0.28730714 0.7867251
-1.4243832 -0.30312851 0.78672487
-1.1728396 -0.048548009 0.78672487
-1.4327936 -0.057510927 0.78672516
-1.3107537 -0.3511366 0.84494197
-1.2879763 -1.0974619 0.84491259
-1.6421975 -0.82406884 1.0485692
-1.2983792 -1.1270225 1.0485692
-0.70503855 -0.56041449 1.0485692
-1.9906065 -0.17053461 1.0485693
-0.60871202 -0.16678612 1.0485692
-1.9077492 -0.55019897 1.0485692
-0.95955873 -0.83546621 1.0485692
-1.1699792 -0.04838052 1.0485696
-1.4325449 -0.036451831 1.0485694
-1.1767184 -0.29039884 1.0485694
-1.4181293 -0.29210809 1.0485694
-1.9860877 -0.17227049 1.077662
-0.69496477 -0.55372995 1.0776623
-1.6515993 -0.83156103 1.077662
-0.61768001 -0.16958897 1.0776621
-1.9028327 -0.55210555 1.0776623
-0.95441973 -0.83364111 1.0776619
-1.3032427 -1.1263392 1.0776622
-1.4143602 -0.30812836 1.0776641
-1.1719439 -0.29042432 1.0776638
-1.1777515 -0.039863598 1.0776646
-1.4145581 -0.044630561 1.0776644
-1.3055812 -0.14917728 1.3395084
-1.2644013 -0.17108087 1.3686056
-1.3051414 -0.15926595 1.3976952
-1.2979388 -0.15097865 1.4267894
-1.3122218 -0.16858807 1.455884
-1.2885072 -0.18299821 1.4849818
-1.3031443 -0.17336786 1.5140712
