# .PCD v0.7 - Point Cloud Data file format
VERSION 0.7
FIELDS x y z
SIZE 4 4 4
TYPE F F F
COUNT 1 1 1
WIDTH 897
HEIGHT 1
VIEWPOINT 0 0 0 1 0 0 0
POINTS 897
DATA ascii
-4.2726388 -0.29707512 1.5567298
-4.2726331 -0.29893038 2.7099636
-4.2726355 -0.29204786 -0.73643112
-4.2726359 -6.2639217 3.0276744
-4.272635 -0.29745731 0.41623664
-4.2726316 2.5289531 2.7299528
-4.1630874 -0.29613289 1.54962
-4.1630874 -0.29228473 2.6706002
-4.1630874 -0.28087884 -0.72475481
-4.1630874 -6.2581034 3.0209661
-4.1630874 -0.27859721 0.39589339
-4.1630874 2.5637696 2.7548623
-4.0534725 -0.29478979 1.0531757
-4.0535555 -6.2658625 3.0101767
-4.0535555 2.5267866 2.746213
-3.9440918 -0.30354086 1.0695843
-3.9439719 -6.2780175 2.9811358
-3.9439716 2.5201936 2.7501314
-3.8342235 -0.28632432 1.0474554
-3.8344469 -6.2566414 3.0159421
-3.8344464 2.5165606 2.749527
-3.7247949 -0.29951423 1.0361627
-3.7248607 -6.2798738 3.0102935
-3.7248604 2.4926 2.7423251
-3.6152477 -0.29307166 1.00526
-3.615294 -6.2653904 2.7614729
-3.6153295 2.5043929 2.7526131
-3.5058436 -0.29547265 1.0414478
-3.5057762 -6.2600827 2.8070378
-3.5057466 2.544415 2.738121
-3.3962822 -0.29967606 1.0235745
-3.3961968 2.5263052 2.3318725
-3.3962238 -6.278511 2.7898889
-3.3961446 -3.1131868 2.3153329
-3.2866495 -0.30701998 1.534037
-3.2866292 2.5298629 2.2352402
-3.286649 -0.29671109 2.7023351
-3.2866521 -0.28175715 -0.73235887
-3.2866385 -6.2579894 2.7701514
-3.2866292 -3.1291673 2.1607521
-3.2866507 -0.31704912 0.39540884
-3.1771154 -0.28342986 1.5689672
-3.1771052 2.5284717 2.2590692
-3.1771147 -0.31114632 2.7031858
-3.1771147 -0.29079965 -0.72528124
-3.177093 -6.2779469 2.7802043
-3.1771045 -3.1108065 2.1804671
-3.1771135 -0.29202512 0.41942921
-3.0675354 -0.28149465 1.5646453
-3.0675304 2.5368485 2.2429476
-3.0675375 -0.29570672 2.7131162
-3.0675371 -0.29143333 -0.72883558
-3.0675457 -6.2676778 2.8046923
-3.0675356 -3.1220486 2.1674378
-3.0675397 -0.27390513 0.41197148
-2.9579995 -0.28415337 1.5576559
-2.9580052 2.5301914 2.208992
-2.9579997 -0.31083655 2.7017968
-2.9579999 -0.3016012 -0.73884648
-2.9580028 -6.2506847 2.807677
-2.9580054 -3.1157959 2.1538558
-2.957999 -0.27231613 0.41050851
-2.8484254 -0.29869378 1.5310247
-2.8484409 2.5180352 2.1970153
-2.8484242 -0.27356723 2.7019536
-2.8484268 -0.30183196 -0.72680527
-2.8484111 -6.2705641 2.8218889
-2.8484471 -3.102747 2.1417284
-2.8484242 -0.28499314 0.43406197
-2.7388887 -0.29524118 1.5638973
-2.738817 2.5291901 2.2031913
-2.738889 -0.28043929 2.7199404
-2.738889 -0.30254939 -0.74612755
-2.7388773 -6.2562766 2.8002486
-2.7388141 -3.1252811 2.162313
-2.738889 -0.30327511 0.39645478
-2.6293197 -0.31772876 1.5591539
-2.6293178 2.5140195 1.5842893
-2.6293199 -0.30096707 2.7303734
-2.6293204 -0.2758618 -0.7202155
-2.629302 -6.2581506 2.8235695
-2.629319 -3.1134028 1.5672939
-2.6293173 -3.1279876 2.5649505
-2.6293168 -0.2942093 0.39754772
-2.6293037 2.5205238 2.5797937
-2.5197744 -0.29680866 1.5443219
-2.5197744 2.5013516 1.5569634
-2.5197744 -0.29307914 2.7021973
-2.5197744 -0.30685344 -0.71705139
-2.5197747 -6.2638183 2.7896087
-2.5197744 -3.1243751 1.5828439
-2.5197744 -3.1134176 2.560055
-2.5197744 -0.27727082 0.38017792
-2.5197744 2.536459 2.7816243
-2.4102106 -0.31682238 1.5480647
-2.4102058 2.5278621 1.5594387
-2.4102073 -0.2946361 2.7382469
-2.4102104 -0.31103191 -0.73022443
-2.410188 -6.280055 2.8061855
-2.4102077 -3.1283166 1.5622782
-2.4102058 -3.1079021 2.5406678
-2.4102077 -0.29516685 0.39430666
-2.4102068 2.5212905 2.7371092
-2.3006589 -0.31042397 1.5549363
-2.3006589 2.5312393 1.5474772
-2.3006589 -0.31099707 2.7352977
-2.3006589 -0.30413508 -0.73617959
-2.3006589 -6.2586765 2.8051519
-2.3006589 -3.1129458 1.551334
-2.3006589 -3.1231875 2.5314696
-2.3006589 -0.3031148 0.41574752
-2.3006589 2.5264344 2.7552927
-2.1911061 -0.30017325 1.555702
-2.1911068 2.5291409 1.5444143
-2.1911035 -0.3035672 2.7113302
-2.1911013 -0.28706706 -0.7384463
-2.1911249 -6.2701063 2.8030879
-2.1911023 -3.1085281 1.5571671
-2.1911047 -3.1010649 2.5553961
-2.1911056 -0.29310852 0.41825506
-2.1911089 2.5329771 2.7169678
-2.0815437 -0.29450634 1.5518013
-2.0815437 2.5152819 1.570936
-2.0815437 -0.27748683 2.6703234
-2.0815432 -0.2909981 -1.1639028
-2.0815434 -6.2629447 2.7808139
-2.0815437 -3.1272752 1.5686857
-2.0815437 -3.119478 2.5512261
-2.0815437 -0.30840376 0.40288743
-2.0815437 2.5409825 2.7370462
-1.9719858 -0.27887151 1.5708277
-1.9719858 2.5336983 1.5525773
-1.9719858 -0.29998612 2.6757259
-1.9719775 -0.30568725 -1.2333385
-1.9720052 -6.2773838 2.8007314
-1.9719858 -3.1169701 1.5436116
-1.9719858 -3.1005063 2.568172
-1.9719859 -0.29542539 0.4316707
-1.9719858 2.5404248 2.7711647
-1.8624302 -0.2835342 1.5708781
-1.8624305 2.5215633 1.5469899
-1.8624301 -0.30002841 2.7050645
-1.8624735 -0.29821604 -1.2298114
-1.8624287 -6.2787075 2.7909257
-1.8624301 -3.1207211 1.5796013
-1.8624301 -3.1064429 2.5498664
-1.8624302 -0.29422572 0.43930647
-1.8624302 2.52706 2.7176819
-1.7529091 -3.10833 1.1744287
-1.7528731 -0.28700122 1.5668157
-1.7528733 2.5235009 1.5487198
-1.7528729 -0.30367091 2.7123904
-1.7529104 -0.28016517 -1.257414
-1.7529014 -6.2737684 2.6103716
-1.7528728 -3.1128912 2.5589247
-1.7528731 -0.30941823 0.41960272
-1.7528729 2.5283196 2.7600491
-1.6433146 -3.1122069 1.053557
-1.643325 -0.31204623 1.5689055
-1.6433253 2.5252647 1.5533283
-1.6433262 -0.2791616 2.7081428
-1.6433148 -0.28673926 -1.2712607
-1.6433146 -6.2670007 2.3396001
-1.6433254 -3.1164804 2.589638
-1.6433252 -0.30179366 0.41681162
-1.6433251 2.504204 2.7384741
-1.5337653 -3.1152639 1.0661142
-1.5337692 -0.2923559 1.5562218
-1.5337683 2.5090358 1.5738655
-1.5337696 -0.30121905 2.6850169
-1.5337657 -0.30154637 -1.2525959
-1.5337702 -6.2634573 2.3579211
-1.5337681 -3.1200154 2.5672693
-1.5337683 -0.31586322 0.41110665
-1.5337687 2.5122736 2.741312
-1.4242209 -3.1213827 1.0538018
-1.424212 -0.29053757 1.5649499
-1.4242117 2.5230794 1.558813
-1.4242128 -0.29604942 2.6905522
-1.4242222 -0.2962274 -1.2453129
-1.4242128 -6.2683392 2.332222
-1.4242122 -3.1454232 2.5620663
-1.4242117 -0.3070007 0.41670007
-1.4242121 2.5271494 2.7379198
-1.3146758 -3.1233699 1.0626346
-1.3146592 -0.27853683 1.5402822
-1.3146588 2.5177007 1.5606892
-1.3146607 -0.29021758 2.6748512
-1.3146601 -0.31583074 -0.72168607
-1.3146582 -0.3039766 -1.8959641
-1.314674 -6.2532587 2.3354518
-1.3146592 -3.1294172 2.5740812
-1.3146601 -0.29318079 0.40162575
-1.3146586 2.5273433 2.7390511
-1.2050853 -3.1155066 1.0169563
-1.2051029 -0.30327889 1.5498219
-1.205104 2.5269234 1.5579433
-1.2051036 -0.29563922 2.7128558
-1.2051049 -0.28600037 -0.7409575
-1.2051042 -0.26766086 -1.8673171
-1.205086 -6.2732949 2.2851408
-1.2051041 -3.1245501 2.5770884
-1.2051039 -0.29454654 0.42058548
-1.2051042 2.535496 2.7121239
-1.0955656 -3.1229053 1.0326133
-1.0955523 -0.28398627 1.5748889
-1.0955533 2.5318015 1.5627439
-1.0955513 -0.29844567 2.70505
-1.0955533 -0.30199638 -0.7296015
-1.0955535 -0.30142942 -1.9057161
-1.0955733 -6.267365 2.3036661
-1.0955527 -3.1193678 2.5412104
-1.0955515 -0.29282662 0.40550956
-1.0955507 2.5175619 2.7328172
-0.98599297 -3.1202633 0.42772934
-0.98599291 -0.29040667 1.5685147
-0.98599291 2.5538466 1.549494
-0.98599309 -0.29278249 2.7109942
-0.98599291 -0.29020819 -0.73739547
-0.98602235 -0.29678556 -2.2451868
-0.98599297 -6.2684207 1.5636188
-0.98600382 -6.2817531 2.6465161
-0.98599291 -3.1086905 1.5516329
-0.98599297 -3.1142991 2.5475557
-0.98599291 -0.26278061 0.41692829
-0.98599297 2.5220809 2.7324793
-0.87643659 -3.1160171 0.42871064
-0.87643659 -0.28800225 1.556699
-0.87643653 2.5474372 1.5537033
-0.87643659 -0.31299576 2.6952488
-0.87643671 -0.29327476 -0.70955002
-0.87645668 -0.30088726 -2.328234
-0.87643641 -6.2702594 1.5670214
-0.87644422 -6.2648897 2.7868617
-0.87643653 -3.1275399 1.5816189
-0.87643671 -3.1226473 2.5506713
-0.87643653 -0.281432 0.3836903
-0.87643653 2.5072551 2.7071815
-0.76680094 5.8528948 0.76407439
-0.76688439 -3.1059999 0.40751237
-0.76688462 -0.28032747 1.5679786
-0.76688415 -0.30949757 2.7046545
-0.76688457 -0.30629417 -0.71756464
-0.76688129 -0.30131295 -2.3131351
-0.76688409 -6.2597303 1.5513736
-0.76688671 -6.2726254 2.7899857
-0.7668848 -3.0994632 1.5423141
-0.76688462 -3.1148109 2.5564692
-0.76688445 -0.3205995 0.41098788
-0.76688409 2.5414553 2.7213273
-0.65730011 4.4587154 0.85802215
-0.6573289 -3.1303177 0.395403
-0.65732932 -0.29828116 1.5707096
-0.65732986 -0.26892647 2.6755867
-0.65732944 -0.30975547 -0.75847828
-0.65733856 -0.27754951 -2.2817132
-0.65732926 -6.2736502 1.5445896
-0.65732592 -6.2708592 2.7854578
-0.65732986 -3.1219952 1.5360669
-0.65732968 -3.1227458 2.5540147
-0.65732962 -0.29750359 0.42096624
-0.65732956 2.5093517 2.7428372
-0.54778296 4.2469158 0.85117829
-0.54777563 -3.1106653 0.41877538
-0.54777533 -0.29400367 1.5610827
-0.54777622 -0.29185161 2.7440782
-0.54777586 -0.27505586 -0.74954528
-0.54778641 -0.30567968 -2.2576165
-0.54777575 -6.2605581 1.5572451
-0.54778206 -6.28019 2.79951
-0.54777694 -3.1277893 1.5493546
-0.54777545 -3.1114023 2.5405221
-0.54777688 -0.29548335 0.41925743
-0.54777533 2.516113 2.7442272
-0.43823078 4.0195918 0.83923566
-0.43821827 -3.1060822 0.4053196
-0.4382183 -0.28727266 1.5569159
-0.4382183 -0.27738142 2.7236221
-0.43821827 -0.28920281 -0.74131542
-0.43822727 -0.296987 -2.2668397
-0.4382183 -6.2595329 1.5624067
-0.43822211 -6.2590189 2.8058045
-0.43821827 -3.1061423 1.5711857
-0.43821838 -3.1166747 2.5735159
-0.43821833 -0.28521857 0.40738994
-0.43821833 2.5440593 2.7522519
0.43823081 3.9943991 0.83644187
0.43821821 -3.1168151 0.4168373
0.43821827 -0.32542217 1.5524837
0.43821824 -0.32939333 2.7030349
0.43821824 -0.30698457 -0.73692209
0.43822771 -0.28352994 -2.2750683
0.43821836 -6.2703886 1.5711657
0.43822259 -6.2560539 2.7896318
0.43821836 -3.1327434 1.5791463
0.4382183 -3.1255713 2.5659397
0.43821824 -0.29447711 0.41804466
0.43821824 2.529762 2.7388391
0.54778463 4.2425365 0.82920265
0.54777622 -3.1232748 0.36520064
0.54777569 -0.29675767 1.5712075
0.54777575 -0.30585137 2.7060978
0.54777598 -0.29491729 -0.73177958
0.54778647 -0.29146212 -2.2401156
0.54777682 -6.2519584 1.5721375
0.54778141 -6.2615166 2.821398
0.54777652 -3.1086426 1.5477554
0.54777586 -3.1298246 2.5549181
0.54777575 -0.2902545 0.41287965
0.54777533 2.5162888 2.7322669
0.65729743 4.4986467 0.85071635
0.65733027 -3.1260774 0.39167678
0.65732974 -0.29362369 1.5564743
0.65733033 -0.31935933 2.7056506
0.6573301 -0.29385126 -0.74108148
0.65733802 -0.29770038 -2.2654264
0.65732878 -6.2743654 1.5576062
0.65732634 -6.2613225 2.7979648
0.65732968 -3.1176462 1.5728616
0.65732878 -3.1126218 2.5661337
0.65732998 -0.30155569 0.41366932
0.65732968 2.5132172 2.7480762
0.76680088 5.8645849 0.76957643
0.7668851 -3.1170754 0.43886858
0.76688457 -0.27791339 1.5774678
0.76688439 -0.28517383 2.7036805
0.76688409 -0.29944822 -0.76823139
0.76688141 -0.28320584 -2.332119
0.76688427 -6.2677255 1.5633121
0.76688719 -6.2798576 2.8131359
0.76688415 -3.1045423 1.5507638
0.76688492 -3.121613 2.5608444
0.76688421 -0.30203018 0.42707294
0.76688462 2.5174787 2.7557535
0.87643647 -3.1051834 0.42374259
0.87643659 -0.28991485 1.5652497
0.87643653 2.545459 1.555961
0.87643665 -0.28601146 2.6720986
0.87643659 -0.2791155 -0.7404021
0.87645674 -0.29523587 -2.3307498
0.87643659 -6.2927694 1.5745298
0.87644404 -6.2785792 2.7915256
0.87643659 -3.097518 1.5648154
0.87643653 -3.1506219 2.5573268
0.87643653 -0.28653061 0.39511502
0.87643659 2.5421238 2.7311101
0.98599297 -3.1144681 0.40086818
0.98599297 -0.29780087 1.5473369
0.98599297 2.5160294 1.5603849
0.98599297 -0.28127068 2.7085814
0.98599291 -0.28586674 -0.72917753
0.9860236 -0.30591494 -2.2356114
0.98599297 -6.2731085 1.5581541
0.98600191 -6.2738647 2.6440682
0.98599291 -3.1134059 1.5468929
0.98599291 -3.1198606 2.5466783
0.98599291 -0.28504726 0.40855145
0.98599291 2.5243142 2.7372859
1.0955647 -3.1156502 1.0330327
1.0955511 -0.30019552 1.5426422
1.095552 2.5272734 1.5708125
1.0955534 -0.28144175 2.7209456
1.0955534 -0.30677804 -0.73628503
1.0955526 -0.2886757 -1.8909144
1.0955733 -6.2627306 2.3204935
1.0955534 -3.1065788 2.5410697
1.0955534 -0.30434176 0.39737692
1.0955507 2.5347071 2.7357144
1.2050854 -3.122396 1.0391622
1.2051044 -0.30737627 1.5655552
1.2051039 2.5319543 1.5474727
1.2051032 -0.2833136 2.7036376
1.2051036 -0.3017683 -0.7388553
1.2051042 -0.27604142 -1.8773001
1.2050858 -6.2561159 2.3060105
1.2051038 -3.1221001 2.5633304
1.2051046 -0.3097693 0.39767677
1.2051044 2.5205054 2.7068565
1.3146766 -3.1116121 1.0601859
1.314659 -0.29714578 1.5392417
1.3146602 2.5453742 1.5774282
1.3146583 -0.29012594 2.6972342
1.3146583 -0.27384743 -0.7458989
1.3146596 -0.29362714 -1.8957583
1.3146744 -6.2695837 2.3322561
1.3146596 -3.1193445 2.5365345
1.3146594 -0.3015995 0.42786694
1.3146578 2.5343509 2.7288706
1.4242213 -3.1240518 1.0326505
1.4242129 -0.30358931 1.5634633
1.424214 2.4950733 1.5497552
1.4242114 -0.28309664 2.69872
1.4242216 -0.29082394 -1.2670767
1.424212 -6.2549663 2.326901
1.4242123 -3.1109474 2.5581467
1.4242129 -0.3065995 0.41256607
1.4242121 2.5403032 2.7173889
1.5337679 -3.1216502 1.0661132
1.5337682 -0.29254678 1.5647374
1.5337697 2.5266733 1.5733979
1.5337704 -0.30679241 2.7137811
1.5337639 -0.30245051 -1.2416998
1.5337747 -6.2618327 2.368521
1.533769 -3.1268265 2.5578513
1.5337694 -0.29185578 0.40558621
1.5337689 2.5109873 2.7667792
1.6433145 -3.1058567 1.0549748
1.643325 -0.29811102 1.5468149
1.6433258 2.5110285 1.5486208
1.6433259 -0.28928065 2.7400527
1.6433147 -0.29153833 -1.2573967
1.6433145 -6.2626939 2.3343322
1.6433243 -3.086062 2.5547452
1.6433249 -0.313474 0.40050548
1.6433251 2.5301704 2.72365
1.7529082 -3.1170673 1.1608709
1.7528728 -0.31651363 1.5446079
1.7528731 2.5261099 1.5717076
1.7528731 -0.30794638 2.7068763
1.7529105 -0.30840468 -1.2300196
1.7529022 -6.2688503 2.6068499
1.7528729 -3.1220367 2.5418582
1.7528731 -0.29466668 0.4041912
1.7528731 2.5040014 2.7385917
1.8624301 -0.29798365 1.5427977
1.8624301 2.5197692 1.5629898
1.8624302 -0.29723549 2.7019372
1.8624734 -0.29894871 -1.2248688
1.8624289 -6.2548718 2.7900791
1.86243 -3.1106842 1.5625846
1.8624306 -3.1211181 2.55178
1.8624303 -0.29881963 0.38930723
1.8624301 2.5334477 2.756279
1.9719858 -0.31139138 1.5611349
1.9719863 2.5433214 1.5645162
1.9719858 -0.30080828 2.6945705
1.9719797 -0.29409814 -1.2157677
1.9720073 -6.269486 2.789674
1.9719858 -3.1142571 1.5532585
1.9719859 -3.1255996 2.5560436
1.971987 -0.30319333 0.40945783
1.9719859 2.530339 2.7432737
2.0815437 -0.29158404 1.5782217
2.0815437 2.5526516 1.5347586
2.0815437 -0.28639254 2.7052739
2.0815432 -0.30007547 -1.1977167
2.0815434 -6.2629962 2.8060396
2.0815437 -3.1131527 1.561254
2.0815437 -3.1113369 2.5618992
2.0815437 -0.27843797 0.42012671
2.0815437 2.5388448 2.7579107
2.1911013 -0.30898342 1.5673524
2.1911056 2.5105672 1.5637801
2.1911044 -0.28 2.7116997
2.1911025 -0.28166685 -0.75085163
2.1911266 -6.2601395 2.7924442
2.1911016 -3.1274211 1.554778
2.1911042 -3.1128321 2.5561118
2.1911035 -0.28775346 0.43326202
2.1911073 2.5296791 2.7586586
2.3006589 -0.29949242 1.5613014
2.3006589 2.5338192 1.5424016
2.3006589 -0.30416211 2.7016194
2.3006589 -0.3079879 -0.72925007
2.3006589 -6.2729807 2.8046222
2.3006589 -3.1150606 1.5716255
2.3006589 -3.1209941 2.5435591
2.3006589 -0.30012387 0.42540783
2.3006589 2.5336869 2.7631593
2.4102061 -0.29838911 1.5556368
2.410208 2.5075119 1.569432
2.4102066 -0.31071532 2.6957669
2.4102046 -0.27506676 -0.75066727
2.410188 -6.2618594 2.7874582
2.4102042 -3.1235054 1.5666624
2.4102056 -3.11869 2.5569899
2.4102066 -0.28867629 0.39352956
2.4102123 2.518877 2.7257257
2.5197744 -0.27225026 1.543411
2.5197744 2.5168941 1.5489732
2.5197744 -0.29527599 2.7106426
2.5197744 -0.29313245 -0.75699919
2.5197749 -6.2612224 2.7844925
2.5197742 -3.1115508 1.5658884
2.5197744 -3.1166623 2.5864305
2.5197744 -0.27854618 0.39269462
2.5197744 2.5275593 2.7189727
2.6293159 -0.27160314 1.5619788
2.629318 2.5335059 1.5908566
2.6293173 -0.29428074 2.7250507
2.6293023 2.525214 2.5768502
2.6293154 -0.30226839 -0.73315001
2.6293023 -6.2693696 2.8097553
2.6293192 -3.1399021 1.5620619
2.6293221 -3.1136868 2.5576711
2.6293216 -0.30654123 0.40980574
2.738889 -0.30400601 1.5443535
2.7388175 2.5341766 2.1743808
2.7388887 -0.28893739 2.7357147
2.738889 -0.27690393 -0.73242331
2.7388861 -6.269496 2.8038225
2.7388151 -3.1132152 2.1477458
2.738889 -0.29959473 0.39191481
2.8484256 -0.29814932 1.5471725
2.848438 2.523278 2.1976206
2.8484237 -0.30336934 2.7229936
2.848424 -0.29879197 -0.73352939
2.8484113 -6.2588897 2.7959907
2.848444 -3.1143465 2.1555934
2.8484263 -0.30785522 0.36659798
2.9579997 -0.29893136 1.5538361
2.9580052 2.5313716 2.2398868
2.9579997 -0.29809818 2.7123351
2.957999 -0.29449269 -0.77521837
2.9580028 -6.2700677 2.7786887
2.9580052 -3.1143272 2.1433508
2.9579985 -0.28052637 0.43866584
3.0675399 -0.2946738 1.5509236
3.0675323 2.5206561 2.2308559
3.0675399 -0.31014514 2.6986055
3.0675409 -0.3029027 -0.74013299
3.0675476 -6.2728214 2.8044624
3.0675263 -3.1104944 2.1606438
3.067538 -0.30895337 0.42053893
3.1771142 -0.28888547 1.5688943
3.1771102 2.5265315 2.2520239
3.1771147 -0.2931236 2.7284758
3.1771142 -0.29372755 -0.71460986
3.1770887 -6.2741604 2.7939684
3.1771061 -3.1133316 2.1792796
3.1771147 -0.28182992 0.4308854
3.2866473 -0.28052938 1.5820609
3.2866294 2.5198703 2.2311246
3.2866502 -0.28296736 2.704438
3.2866511 -0.27929416 -0.76432109
3.2866385 -6.2718496 2.7775447
3.2866292 -3.1147771 2.1567707
3.2866483 -0.29414248 0.43078798
3.3962896 -0.2986072 1.025984
3.396194 2.529671 2.358861
3.3962221 -6.2747841 2.8005915
3.3961458 -3.1167245 2.3157346
3.5058439 -0.29335159 1.0406455
3.5057769 -6.2746353 2.804378
3.5057464 2.5265725 2.7436044
3.6152475 -0.29310784 1.0116128
3.6152966 -6.2673807 2.767432
3.6153293 2.5296257 2.734467
3.7247975 -0.29625019 1.0485206
3.7248607 -6.2480111 3.0183973
3.7248602 2.5315318 2.7384095
3.8342197 -0.29355216 1.0326998
3.834446 -6.2841244 2.9987786
3.8344464 2.5266795 2.7448847
3.9441035 -0.29302821 1.0353509
3.9439716 -6.2881379 3.0165868
3.9439716 2.5148385 2.718004
4.0534673 -0.29901004 1.0606149
4.0535588 -6.2628078 3.0172868
4.0535574 2.5236802 2.7201123
4.1630874 -0.29644433 1.5515983
4.1630874 -0.29310787 2.7230437
4.1630874 -0.31903687 -0.74488604
4.1630874 -6.2600832 3.0005865
4.1630874 -0.309246 0.43276691
4.1630874 2.5307381 2.7613873
4.2726755 -0.29118496 1.5604371
4.2726755 -0.29888642 2.7150922
4.2726755 -0.29976267 -0.76327574
4.2726774 -6.2556925 3.0194902
4.272676 -0.303211 0.39203531
4.2726774 2.5299973 2.7520685
0.006987208 -7.793406 -0.65374899
-0.0017972124 -7.7934313 2.6952884
-0.0011285989 -7.5613484 -0.47141796
0.0081359958 -7.5613999 2.7065792
0.0012064766 -7.3292274 -0.27103224
0.010356342 -7.3292041 2.698416
0.0021083171 -7.0971675 -0.075542971
6.4692875e-05 -7.0970802 1.5602752
0.0029726189 -7.0971675 2.7045834
0.0034881199 -6.8651414 0.10994413
0.0010194551 -6.8651266 1.5564706
-0.0042742691 -6.8651309 2.7133498
0.0026399868 -6.633049 -1.3802893
0.0060244193 -6.6352658 2.3895869
0.0051489356 -6.4009223 -1.2034814
-0.01267408 -6.4003415 2.2952521
0.0058434936 -6.1689343 -0.98084807
0.010333645 -6.1700387 2.3208196
0.0072509507 -5.9368935 -0.77223116
-0.0032854131 -5.9374313 2.4043393
-0.0040393728 -5.7047081 -0.57688344
0.00012237576 -5.7048993 0.85995948
-0.011555399 -5.7047238 2.7160087
-0.00111109 -5.4726582 0.49939156
0.0013345024 -5.4726601 4.1053562
-0.00097563548 -5.4726653 2.7031641
-0.0016789677 -5.2403855 0.98518628
-0.0098488377 -5.2406926 4.1322045
0.0029466473 -5.0083528 1.0799129
0.0090423375 -5.0086579 4.1008558
0.0034343444 -4.7765026 -0.17464313
-0.00089736341 -4.7764149 1.8735784
-0.008314576 -4.7764745 4.0989337
-0.0040533175 -4.5444331 -0.058978651
0.0074159247 -4.5442324 1.9458557
0.0089167133 -4.5444331 4.0997171
-0.014754659 -4.3123388 0.044091448
0.0068926578 -4.3124413 1.9853402
0.0052110669 -4.3123851 4.1240335
-0.0093978429 -4.080297 0.13417281
-0.0018006033 -4.0801578 2.0636046
-0.010949971 -4.0802379 4.0955243
0.0032060645 -3.8481889 0.25104111
0.0031579819 -3.8483036 2.0881259
-0.0088346368 -3.8481812 4.1019645
0.0092828963 -3.6161966 0.3629908
-0.00034912766 -3.6162055 2.1474087
0.0097813476 -3.6161995 4.1198325
-0.0046212883 -3.3842902 1.6089731
-0.0059902039 -3.3840916 4.1214738
-0.00052629685 -3.1513965 1.478621
0.0021977092 -3.1520324 4.0982289
0.0033705898 -2.9214318 1.6277994
0.011515683 -2.9199328 4.1095757
0.00073155423 -2.6878991 0.040881686
0.0020977533 -2.6879468 2.3519077
1.4094825 -2.6878858 1.1520044
-0.0032724112 -2.6879313 4.1040483
3.0453446 -2.6878848 2.3019102
-1.4045444 -2.6878853 1.1506556
-3.03847 -2.687885 2.3012035
-0.010332455 -2.455842 0.60566413
0.013985248 -2.4558539 2.4428103
-0.0067006466 -2.4558115 -0.90715575
0.002121412 -2.4558117 4.0883923
-0.0012704795 -2.2238011 0.6613732
-0.0061398372 -2.2238071 2.4965346
-0.00012111344 -2.2237182 -1.2426283
-0.0098998211 -2.2238019 4.1081529
-0.00046939799 -1.991699 0.74689132
0.0026274228 -1.991699 2.5785697
-0.0019069492 -1.9916991 -1.2427537
-0.014352307 -1.9916989 4.1061335
0.0017183705 -1.759586 0.80565965
-0.013727565 -1.7595966 2.6421921
0.0028277766 -1.7596534 -1.2634994
-0.022410071 -1.7596123 4.1050515
0.0012270071 -1.5275834 0.86396521
-0.0037785228 -1.5275815 2.6927419
0.0048646145 -1.5275785 -0.73147786
0.0012027648 -1.5275778 -1.8718791
-0.0060918401 -1.527581 4.098146
-0.0001239805 -1.2954787 0.92182088
0.0028264315 -1.2955054 2.7354772
0.0016634512 -1.2954956 -0.71241134
-0.00061664317 -1.2954435 -2.2285514
0.0010451794 -1.2955064 4.1122475
0.00080473733 -1.0634528 0.99115378
-0.007336122 -1.0634272 2.7574167
-0.0025645948 -1.0634234 -0.7347095
0.013968785 -1.0634625 -2.3162611
-0.0061769448 -1.0634379 4.1148143
0.0078502269 -0.83132964 1.0606862
-0.011814641 -0.83135962 2.8553312
0.0063265669 -0.83135957 -0.74669796
-0.0027496694 -0.83131748 -2.2573287
-0.0053519327 -0.83134812 4.1020236
-0.0017169297 0.32897943 1.351474
0.010170745 0.3289794 3.7574289
-0.0012163954 0.32897934 -0.74413371
0.0016149173 0.32897943 -2.2647977
0.00060491206 0.56103683 1.3859791
0.0086251255 0.5610376 3.8024375
0.0078506423 0.56104046 -0.73904759
0.0095994631 0.56103647 -2.3228223
-0.0057698945 0.79313225 1.4324051
0.0064366604 0.79309809 3.8350017
-0.0038425592 0.79310608 -0.72499949
-0.0023922524 0.79312092 -2.1576526
-0.0018035281 1.025158 1.4812095
-0.0080212485 1.0251683 3.8858578
0.0034764211 1.0251626 -1.2781659
0.0034969973 1.2572852 1.4745063
-0.0020105268 1.2572477 3.9171398
-0.002415624 1.2572825 -1.2536606
-0.001536371 1.4892678 1.5204629
0.0080530895 1.4892792 3.9175332
-0.0004462059 1.4892694 -1.2330501
0.0086228605 1.7213185 1.5719755
-0.0018131775 1.721411 4.0843158
0.0053166714 1.7213453 -1.1889309
0.001335739 1.953455 1.6436254
0.00076983351 1.9534658 -0.73822898
-0.006931745 1.9534378 4.1027036
-0.0062345369 2.1849186 1.9895
0.0069712242 2.1855326 4.1211791
-0.0050077573 4.0420604 1.5128068
0.0036508692 4.0420003 3.8918004
-0.0031209474 4.2741256 1.5042349
0.0091128871 4.2740602 3.9493737
-0.0061252331 4.5060244 1.5058854
-0.00048835052 4.506238 4.0325012
0.0068751965 4.7382803 1.51004
-0.00020761267 4.7382789 4.1198344
0.0054926211 4.9705338 1.5082152
0.00059828366 4.9702468 4.1157899
0.0084861023 5.2022114 1.0506027
-0.0015496553 5.2023249 2.7370794
-0.0025609825 5.2022805 4.0954933
-0.0090682581 5.4345489 1.0050043
-0.0020635263 5.4345264 2.7309833
0.013198648 5.4345384 4.0899477
0.0052265129 5.6666965 1.0318385
0.0041892589 5.6665049 2.7273109
-0.0085565168 5.6665044 4.1219921
0.0029273322 5.8984761 1.0645518
0.0071036881 5.8985634 2.7437961
0.015993373 5.8985248 4.0973282
0.0054081772 6.1307898 0.75343376
-0.0030279325 6.1307573 4.1200142
-0.006023474 6.3625727 0.76102144
-0.012899081 6.3627162 4.1024585
0.0029007371 6.5947309 0.76609927
0.011195015 6.5947332 4.1097927
-0.012335652 6.8269496 0.73826069
-0.0062214788 6.8268347 4.0907278
0.014536464 7.0587983 0.74455953
0.0044575972 7.0588989 4.1028008
0.00010630899 7.2910137 0.73005068
-0.024367318 7.2910137 4.0807762
-0.009767889 7.5232172 0.74014884
0.005780058 7.5232 4.1101022
0.0076873065 7.7549896 0.75071877
0.029615065 7.9872379 0.77645284
0.0055059539 8.2194176 0.77644259
-0.0023784912 8.4512129 0.76086795
-0.0035928693 8.683547 0.75018078
-0.0064411201 8.915411 0.74139494
-0.0078075365 9.1476555 0.7809369
0.016552262 9.3795261 0.75899702
0.0033395907 9.6122026 0.75445092
0.0064307721 -0.30055806 -3.0344357
-0.038895488 -0.29833201 -2.9357867
0.025154507 -0.30484354 -2.8369279
0.021319153 -0.25746819 -2.7381024
0.0046206559 -0.31432384 -2.6393464
-0.015040562 -0.27138999 -2.5405126
0.0057043582 -0.31925318 -2.4416554
0.0014121725 -0.29221934 -2.2441213
0.0096217943 -0.29208305 -2.0465107
0.018287174 -6.4869695 -1.3546981
1.7689631 -0.29598245 -1.3546944
-1.7662524 -0.29585385 -1.3546944
0.010923279 -2.0137372 -1.3546963
0.0057781227 1.4310005 -1.3546969
0.00011271521 -0.28913769 -1.3546959
0.0052019819 -6.3217068 -1.2558821
1.7720876 -0.29650947 -1.2558639
-1.7792821 -0.29533514 -1.2558639
-0.0027741767 -2.0249608 -1.2558639
0.0014080211 1.4352669 -1.2558638
0.0014462251 -0.29196098 -1.2558639
0.016567653 -6.1485963 -1.1570504
0.032414321 -0.29788733 -1.1569078
0.00079358264 -5.9847574 -1.0582345
0.027546717 -0.30380946 -1.0582044
0.00023081039 -5.8497186 -0.95941818
0.01592155 -0.28784266 -0.95946419
-0.0035455227 -5.6899962 -0.8606025
-0.015277494 -0.29091379 -0.86065191
-0.00074912235 -5.5268626 -0.76178598
-0.0010148243 -0.28972602 -0.76175886
0.021008484 -5.3857098 -0.66297048
0.0011586859 -7.728086 -0.66297591
-0.038869333 -0.28358829 -0.66301221
0.0030688439 -5.2298293 -0.56415468
-8.7170092e-06 -7.5611181 -0.56415945
0.018822124 -0.30177498 -0.56418812
0.0037476404 -5.0711808 -0.46533462
0.0071144314 -7.3953633 -0.46533704
0.014396347 -0.3264038 -0.46533248
-0.0063927076 -4.9664459 -0.36651927
-0.013099145 -7.231595 -0.366521
-0.012327464 -0.30120671 -0.36659339
-0.0007911775 -4.792551 -0.26770326
0.00083550345 -7.0722814 -0.26770526
0.013625866 -3.1068273 -0.26770613
3.7271211 -0.30455917 -0.26770622
-0.013460528 2.5095522 -0.26770613
0.00027192643 -0.29168954 -0.26770622
-3.7541142 -0.30295864 -0.2677061
-0.011930927 -4.6592741 -0.16888881
0.0024646383 -6.910027 -0.16888961
-0.022552155 -3.1091447 -0.16888881
3.7290506 -0.29840907 -0.16888855
-0.0023674585 2.5145018 -0.16888869
-0.0082847504 -0.31383651 -0.16888861
-3.7368782 -0.29668629 -0.16888881
-0.0034526854 -3.634407 -0.070069373
0.027135374 -6.735662 -0.070071936
3.7454357 -0.30363098 -0.070069931
-0.0018249918 2.5044756 -0.070069917
-0.0016876552 -0.29713875 -0.070069924
-3.7404687 -0.2951709 -0.070069924
-0.0035525342 2.0826316 0.028731629
0.00019881528 -6.5936837 0.028745508
0.025109302 0.07483013 0.12756345
0.0033809112 -6.4354081 0.12756297
-0.00036500322 0.47972882 0.32519534
0.0057200347 -5.6462817 0.3251954
-0.016495416 0.43837458 0.42402378
-0.0058879415 -5.5657415 0.42401147
0.01994323 0.55233383 0.52290213
-0.0016498081 -5.6030474 0.52282745
-0.0033404245 0.83486128 0.62161374
-0.0069774468 -5.5665979 0.62164396
0.0038493632 0.94287413 0.72055507
-0.0010247731 -5.4681749 0.72045994
0.00757227 -0.21409725 0.81930113
0.0018119705 -5.8465195 0.81930238
-0.0027256724 2.8916481 0.9181273
-0.00084156456 -5.3285093 0.91809165
3.7392406 -0.30477601 0.9180932
1.425042 -3.1135397 0.91809344
-1.4069703 -3.1001704 0.91809332
-3.7313774 -0.29855505 0.91809332
0.0020051566 2.8134267 1.0169281
-0.0031942558 -5.2943091 1.0169263
3.7434933 -0.29291892 1.016935
1.4131104 -3.1131611 1.0169331
-1.4180505 -3.1186905 1.0169342
-3.7371302 -0.29213339 1.0169339
-0.0025036794 0.063820004 1.1156118
-0.0011692829 -5.9680128 1.1157233
0.019897996 1.827996 1.3134604
-0.014949224 -4.3412318 1.3134494
0.017738391 1.8847082 1.4121218
0.017369922 -4.3334823 1.4121305
-0.0030748385 3.9586236 1.5114815
-0.020652775 -4.7241788 1.5110254
0.018872673 1.1240067 1.6096469
0.011956535 -4.3091464 1.6097723
-0.017516149 1.2913591 1.7087967
-0.015266831 -4.228981 1.7086923
-0.016642774 1.2313981 1.807567
0.019771222 -4.1622419 1.8075501
0.0071753757 1.3526279 1.9062508
-0.003097852 -4.1995721 1.9062511
0.0018465 1.2793945 2.0050499
0.0097700851 -4.4898901 2.0053442
-0.0066818641 1.87815 2.1039605
-0.019023748 -3.1779873 2.1037037
3.7516611 -0.30012277 2.1038947
3.0380909 2.5380819 2.1038957
-1.3750669 -6.2541332 2.1038954
1.3701322 -6.2607508 2.1038952
0.0051953248 -6.2620835 2.1038952
-3.0427699 2.5115793 2.1038949
-3.7345238 -0.2962198 2.1038949
-0.0078729484 1.9378018 2.2026734
0.0084878094 -3.1422348 2.2029331
3.7400045 -0.29226455 2.2026801
3.0288 2.5224099 2.2026796
-1.3913008 -6.267242 2.2027104
1.3683554 -6.2573657 2.2027102
0.018151073 -6.2601638 2.2027102
-3.0335121 2.5257916 2.2026799
-3.7397652 -0.29130274 2.2026796
0.0045896531 1.6749156 2.3013613
0.0073743197 -5.2378635 2.3010447
-0.023748515 1.4227542 2.4003887
0.023355911 -4.4793682 2.4003885
0.0014839132 2.6070743 2.4990714
-0.034046259 -3.2937903 2.4995565
-0.023553723 2.64905 2.5978649
0.0057177586 -4.9531789 2.5979984
0.0094985636 2.742882 2.6969814
0.0028358311 -3.5113394 2.6971421
0.021871848 2.7926068 2.7956896
0.0084926402 -3.3830996 2.795404
0.034075975 2.7978847 2.8945169
-0.032353662 -3.4736645 2.8945253
-0.023065655 2.8743274 2.993227
-0.0096857389 -3.1601205 2.9931707
-0.02409579 2.9367855 3.0919805
0.00057157403 -2.7775249 3.0928648
0.00032149686 2.9746983 3.1910646
-0.014816026 -0.076406896 3.1909137
0.077573515 -6.2711482 3.1908686
0.007095044 2.9959745 3.2897394
0.0052609518 0.12554365 3.2897406
-0.0068075107 -6.2655458 3.2897129
0.0029016598 3.2097034 3.3884943
-0.019016027 0.37380773 3.3884923
-0.0027213935 -6.2659411 3.3884494
