# .PCD v0.7 - Point Cloud Data file format
VERSION 0.7
FIELDS x y z
SIZE 4 4 4
TYPE F F F
COUNT 1 1 1
WIDTH 1610
HEIGHT 1
VIEWPOINT 0 0 0 1 0 0 0
POINTS 1610
DATA ascii
-1.64657 -0.89401299 1.0164
-1.70427 -0.89286101 1.0164
-1.63731 -0.90548199 1.0164
-1.60604 -0.811867 1.0164
-1.64381 -0.84316599 1.0164
-1.6498801 -0.86689901 1.0164
-1.57464 -0.83431798 1.0164
-1.7262 -0.84751201 1.02263
-1.72237 -0.854366 1.01665
-1.72686 -0.79491299 1.02367
-1.73947 -0.74109602 1.04335
-1.73397 -0.83624601 1.03476
-1.7408 -0.75149 1.0454299
-1.7552 -0.72270399 1.0678999
-1.7276 -0.75057298 1.02482
-1.74339 -0.76640898 1.04948
-1.73092 -0.787395 1.03
-1.73981 -0.73800498 1.04389
-1.74459 -0.780918 1.05135
-1.74282 -0.74628901 1.0485801
-1.72474 -0.87184101 1.02037
-1.72808 -0.76475298 1.02557
-1.72409 -0.79932898 1.0193501
-1.7251199 -0.83793199 1.02095
-1.7391599 -0.812105 1.04286
-1.73192 -0.79562098 1.03157
-1.72464 -0.75724399 1.0202
-1.74605 -0.77054 1.05362
-1.74167 -0.73867702 1.04679
-1.74615 -0.80779201 1.0537699
-1.75552 -0.82710803 1.0684
-1.75106 -0.769732 1.06144
-1.74775 -0.92553598 1.05627
-1.72421 -0.89649999 1.0195301
-1.73168 -0.87446702 1.03119
-1.74334 -0.799366 1.04939
-1.7544301 -0.83717799 1.0667
-1.75462 -0.76880902 1.067
-1.75532 -0.81308901 1.06809
-1.75103 -0.83586597 1.06139
-1.74379 -0.91444701 1.05009
-1.74708 -0.83220702 1.05522
-1.75114 -0.92022997 1.06156
-1.73185 -0.88633502 1.03146
-1.74825 -0.86957401 1.05706
-1.73395 -0.91167498 1.03474
-1.74971 -0.80514002 1.05934
-1.7506599 -0.81530797 1.06082
-1.74849 -0.91652697 1.05743
-1.7484 -0.88409603 1.05729
-1.7338001 -0.86375898 1.0345
-1.74693 -0.81564599 1.0549999
-1.72822 -0.882002 1.02579
-1.74421 -0.79296601 1.05074
-1.73718 -0.83524102 1.03977
-1.7521501 -0.75850397 1.06314
-1.75322 -0.77060699 1.06481
-1.7395101 -0.82916999 1.04342
-1.72954 -0.87903398 1.02785
-1.7315 -0.907866 1.03091
-1.62456 -0.93789202 1.06449
-1.57908 -0.93807697 1.06477
-1.60014 -0.93066198 1.0532
-1.66412 -0.94016498 1.06803
-1.66497 -0.93072999 1.05331
-1.64851 -0.92948401 1.05136
-1.68127 -0.91646099 1.0310301
-1.65016 -0.93718201 1.06338
-1.72918 -0.934636 1.0594
-1.67154 -0.93738598 1.0636899
-1.6812201 -0.91597801 1.03028
-1.6900001 -0.92199898 1.03968
-1.6995699 -0.91952801 1.03582
-1.6812201 -0.91745698 1.03259
-1.71245 -0.91736102 1.0324399
-1.61716 -0.93617702 1.06181
-1.67949 -0.94021499 1.06811
-1.67147 -0.94035399 1.06833
-1.67416 -0.91599399 1.0303
-1.68458 -0.92745602 1.0482
-1.5925699 -0.93383998 1.0581599
-1.71197 -0.92656398 1.0468
-1.71463 -0.90897799 1.0193501
-1.65438 -0.92629403 1.04638
-1.65453 -0.930583 1.05308
-1.7243 -0.91830099 1.03391
-1.73536 -0.92262602 1.04066
-1.7265 -0.93865198 1.06567
-1.73803 -0.92975098 1.05178
-1.71646 -0.92258698 1.04059
-1.65374 -0.93680602 1.06279
-1.57611 -0.928505 1.04983
-1.57491 -0.92802602 1.04908
-1.54072 -0.935408 1.0606101
-1.60725 -0.91537499 1.02934
-1.64192 -0.908921 1.01926
-1.56387 -0.92594498 1.04584
-1.56276 -0.93277001 1.0564899
-1.67184 -0.91033697 1.02147
-1.57989 -0.90863299 1.01881
-1.61844 -0.912485 1.02483
-1.65652 -0.910092 1.02109
-1.60269 -0.92656398 1.0468
-1.55339 -0.92615902 1.04617
-1.65716 -0.91547298 1.02949
-1.61347 -0.92017901 1.03684
-1.61588 -0.90850198 1.01861
-1.63096 -0.92094499 1.03803
-1.57328 -0.92336702 1.04181
-1.60656 -0.92354 1.04208
-1.59114 -0.91280299 1.0253201
-1.70223 -0.90770102 1.01736
-1.54808 -0.79300499 1.04904
-1.53768 -0.810148 1.0652699
-1.545 -0.88785398 1.0538599
-1.55787 -0.886895 1.0337501
-1.5506999 -0.80895799 1.04494
-1.54475 -0.86559403 1.05425
-1.54842 -0.90423101 1.0484999
-1.5514899 -0.87728399 1.04372
-1.53894 -0.81902099 1.0633
-1.53576 -0.88069201 1.06827
-1.54565 -0.89347202 1.05284
-1.54273 -0.76605397 1.0574
-1.53969 -0.83832198 1.06214
-1.5404201 -0.79369903 1.06099
-1.54171 -0.88095802 1.05898
-1.54224 -0.76151901 1.0581599
-1.55863 -0.85045201 1.03257
-1.53561 -0.93952799 1.0685
-1.54168 -0.86806899 1.0590301
-1.54145 -0.92037302 1.0593899
-1.53809 -0.90976399 1.06464
-1.53872 -0.81746399 1.06365
-1.5562299 -0.838615 1.03632
-1.5522 -0.92010498 1.04261
-1.5467 -0.78457898 1.05119
-1.55128 -0.91354197 1.04405
-1.54733 -0.82443601 1.0502
-1.56161 -0.885894 1.02792
-1.55679 -0.86750102 1.03545
-1.55317 -0.86306101 1.0411
-1.53635 -0.87574297 1.06735
-1.54369 -0.799977 1.05589
-1.5619 -0.77238297 1.02747
-1.55486 -0.80197603 1.03846
-1.5657901 -0.78450102 1.0214
-1.5422699 -0.74683303 1.05811
-1.55231 -0.73751098 1.04243
-1.54073 -0.74707103 1.06051
-1.56864 -0.818452 1.01695
-1.5475399 -0.75585502 1.04988
-1.5642999 -0.832093 1.02373
-1.56805 -0.81285799 1.0178601
-1.55414 -0.77395397 1.03957
-1.5466 -0.76148599 1.05135
-1.56476 -0.75504398 1.02301
-1.54856 -0.76573598 1.04829
-1.54533 -0.73182702 1.05334
-1.5548199 -0.806099 1.03852
-1.5603499 -0.82924998 1.02988
-1.56486 -0.81821501 1.02284
-1.56891 -0.86011702 1.01652
-1.56126 -0.83741099 1.02847
-1.56581 -0.86095601 1.0213701
-1.5683399 -0.78295898 1.0174201
-1.62625 -0.74332398 1.0328701
-1.57858 -0.73295897 1.04905
-1.5489399 -0.72779399 1.05711
-1.60053 -0.73381001 1.04772
-1.69049 -0.75295001 1.01784
-1.67948 -0.75094801 1.02097
-1.68879 -0.74977601 1.0228
-1.64899 -0.74406302 1.03171
-1.66703 -0.75058198 1.02154
-1.58946 -0.74882901 1.0242701
-1.56924 -0.73410398 1.04726
-1.60506 -0.74112999 1.03629
-1.66524 -0.74821001 1.0252399
-1.60255 -0.73267198 1.0495
-1.59749 -0.73852402 1.04036
-1.58999 -0.74858701 1.02465
-1.67693 -0.74691403 1.0272599
-1.62141 -0.74267799 1.03388
-1.63108 -0.746023 1.02865
-1.59574 -0.73166698 1.05106
-1.57265 -0.731426 1.05144
-1.68258 -0.74973398 1.0228601
-1.69598 -0.72630501 1.05943
-1.68095 -0.739663 1.0385799
-1.64872 -0.74020803 1.03773
-1.75108 -0.72157902 1.06681
-1.63255 -0.72384602 1.06327
-1.66523 -0.73095798 1.05217
-1.71244 -0.735901 1.0444601
-1.68365 -0.73566902 1.04482
-1.71285 -0.75070697 1.02134
-1.74229 -0.72809702 1.05664
-1.68291 -0.73538798 1.0452501
-1.6473 -0.73609197 1.04416
-1.72454 -0.728598 1.05585
-1.6141 -0.72215998 1.0659
-1.66013 -0.72121 1.06739
-1.64021 -0.72295398 1.06466
-1.68822 -0.72398698 1.06305
-1.7114 -0.72566199 1.0604399
-1.6771899 -0.72832698 1.05628
-1.6101201 -0.72610003 1.05975
-1.63196 -0.72327697 1.06416
-1.56488 -0.72024798 1.06889
-1.6741 -0.72815698 1.05654
-1.63116 -0.723176 1.06432
-1.67629 -0.72364002 1.06359
-1.63688 -0.73459601 1.04649
-1.74904 -0.72630799 1.05943
-1.60176 -0.72812402 1.05659
-1.6914999 -0.73475498 1.04624
-1.65953 -0.74235499 1.03438
-1.71909 -0.74764198 1.02613
-1.6765701 -0.86257398 1.06889
-1.67181 -0.85852098 1.06889
-1.53754 -0.76246101 1.06889
-1.61686 -0.812765 1.06889
-1.71759 -0.92987698 1.06889
-1.54074 -0.73568702 1.06889
-1.67128 -0.913863 1.06889
-1.53901 -0.91015297 1.06889
-1.63615 -0.87556601 1.06889
-1.61686 -0.87680501 1.06889
-1.54935 -0.88031799 1.06889
-1.56871 -0.817698 1.06889
-1.6669199 -0.89884597 1.06889
-1.67767 -0.88440001 1.06889
-1.57658 -0.83461499 1.06889
-1.56503 -0.92294598 1.06889
-1.6154 -0.89542401 1.06889
-1.54836 -0.909302 1.06889
-1.62836 -0.83007699 1.06889
-1.58585 -0.86579603 1.06889
-1.61933 -0.821468 1.06889
-1.57565 -0.79903299 1.06889
-1.53686 -0.87512898 1.06889
-1.64876 -0.90841502 1.06889
-1.63106 -0.87284899 1.06889
-1.67495 -0.866063 1.06889
-1.627 -0.826823 1.06889
-1.61769 -0.87028801 1.06889
-1.63796 -0.89055002 1.06889
-1.66756 -0.878281 1.06889
-1.58435 -0.85055298 1.06889
-1.56784 -0.77117902 1.06889
-1.70337 -0.89105302 1.06889
-1.67255 -0.91400301 1.06889
-1.69253 -0.87881798 1.06889
-1.67089 -0.86963397 1.06889
-1.6087101 -0.79995102 1.06889
-1.59535 -0.86660099 1.06889
-1.58719 -0.88111001 1.06889
-1.63405 -0.91084403 1.06889
-1.69866 -0.897192 1.06889
-1.59114 -0.88015199 1.06889
-1.5388401 -0.73381799 1.06889
-1.5687 -0.89779902 1.06889
-1.61022 -0.81720698 1.06889
-1.64779 -0.88532001 1.06889
-1.62324 -0.88655001 1.06889
-1.56128 -0.92627501 1.06889
-1.67651 -0.902812 1.06889
-1.64457 -0.881657 1.06889
-1.5517499 -0.90265697 1.06889
-1.5839601 -0.934614 1.06889
-1.70771 -0.92823398 1.06889
-1.6904401 -0.89092201 1.06889
-1.6818399 -0.871261 1.06889
-1.57617 -0.85144103 1.06889
-1.60105 -0.858661 1.06889
-1.64917 -0.88218999 1.06889
-1.5358 -0.83257598 1.06889
-1.6242599 -0.820732 1.06889
-1.5957201 -0.88453901 1.06889
-1.60816 -0.94047999 1.06889
-1.57318 -0.82827699 1.06889
-1.55681 -0.75609899 1.06889
-1.67409 -0.88312298 1.06889
-1.58192 -0.869057 1.06889
-1.69809 -0.93733501 1.06889
-1.54755 -0.80820203 1.06889
-1.56564 -0.79630101 1.06889
-1.54567 -0.76620698 1.06889
-1.6411901 -0.86744303 1.06889
-1.62673 -0.87152898 1.06889
-1.57866 -0.83533299 1.06889
-1.58839 -0.79742801 1.06889
-1.7101001 -0.919173 1.06889
-1.68054 -0.91089898 1.06889
-1.62273 -0.90796602 1.06889
-1.61078 -0.83414698 1.06889
-1.70267 -0.918365 1.06889
-1.7246799 -0.90963298 1.06889
-1.55402 -0.75579 1.06889
-1.56583 -0.92420501 1.06889
-1.67989 -0.90515 1.06889
-1.59408 -0.79533702 1.06889
-1.62965 -0.890908 1.06889
-1.63366 -0.92303699 1.06889
-1.54643 -0.75748497 1.06889
-1.65362 -0.86696202 1.06889
-1.65385 -0.85930502 1.06889
-1.73695 -0.937693 1.06889
-1.61069 -0.84339499 1.06889
-1.5529 -0.81520599 1.06889
-1.68313 -0.887649 1.06889
-1.53658 -0.821697 1.06889
-1.70408 -0.91246003 1.06889
-1.61652 -0.92590702 1.06889
-1.7370501 -0.93168902 1.06889
-1.58258 -0.85919702 1.06889
-1.64907 -0.84364802 1.06889
-1.66713 -0.92127901 1.06889
-1.5491 -0.88473201 1.06889
-1.54676 -0.76059598 1.06889
-1.63614 -0.848764 1.06889
-1.6101 -0.89177799 1.06889
-1.539 -0.72625202 1.06889
-1.61204 -0.85211802 1.06889
-1.5383199 -0.84667599 1.06889
-1.64344 -0.91416502 1.06889
-1.5642 -0.819848 1.06889
-1.6114 -0.826671 1.06889
-1.7132699 -0.87224698 1.06889
-1.74066 -0.827034 1.06889
-1.66021 -0.80840403 1.06889
-1.68742 -0.73742598 1.06889
-1.74125 -0.75213897 1.06889
-1.74468 -0.81771302 1.06889
-1.65145 -0.72185701 1.06889
-1.6934299 -0.82556099 1.06889
-1.71306 -0.80622602 1.06889
-1.65938 -0.79075801 1.06889
-1.66046 -0.73803198 1.06889
-1.7536401 -0.86546099 1.06889
-1.63424 -0.72252297 1.06889
-1.63829 -0.81290001 1.06889
-1.6880701 -0.81786501 1.06889
-1.71062 -0.830504 1.06889
-1.66631 -0.79537302 1.06889
-1.74551 -0.76654297 1.06889
-1.7345001 -0.77476799 1.06889
-1.68653 -0.868433 1.06889
-1.5875601 -0.74929303 1.06889
-1.64167 -0.80470502 1.06889
-1.68413 -0.85096699 1.06889
-1.67005 -0.82690501 1.06889
-1.71469 -0.742109 1.06889
-1.7533 -0.73069203 1.06889
-1.68551 -0.727732 1.06889
-1.75413 -0.85724998 1.06889
-1.73669 -0.728405 1.06889
-1.71884 -0.78342903 1.06889
-1.63862 -0.72188598 1.06889
-1.73614 -0.82476503 1.06889
-1.62454 -0.759835 1.06889
-1.72339 -0.72643298 1.06889
-1.65854 -0.73074102 1.06889
-1.6978199 -0.77211601 1.06889
-1.6185499 -0.75557399 1.06889
-1.60238 -0.756504 1.06889
-1.73813 -0.733639 1.06889
-1.59718 -0.77129298 1.06889
-1.6381299 -0.79344302 1.06889
-1.71213 -0.76438999 1.06889
-1.59105 -0.738478 1.06889
-1.70163 -0.81141597 1.06889
-1.64118 -0.72140402 1.06889
-1.68559 -0.73901898 1.06889
-1.64862 -0.73819602 1.06889
-1.68269 -0.75172102 1.06889
-1.7161601 -0.86480403 1.06889
-1.72155 -0.87960601 1.06889
-1.62868 -0.76522201 1.06889
-1.67318 -0.83056903 1.06889
-1.71556 -0.78101701 1.06889
-1.6974 -0.84719902 1.06889
-1.6713001 -0.720456 1.06889
-1.7504801 -0.73026198 1.06889
-1.6263 -0.73438901 1.06889
-1.73546 -0.84301001 1.06889
-1.56196 -0.731341 1.06889
-1.66573 -0.82064998 1.06889
-1.69631 -0.76037198 1.06889
-1.64676 -0.82677901 1.06889
-1.73169 -0.84763002 1.06889
-1.71245 -0.88875502 1.06889
-1.64577 -0.80917501 1.06889
-1.7420599 -0.92546201 1.06889
-1.72999 -0.72939903 1.06889
-1.7294 -0.89416999 1.06889
-1.67243 -0.84815401 1.06889
-1.7235 -0.79866302 1.06889
-1.63016 -0.75425702 1.06889
-1.62212 -0.79731202 1.06889
-1.69144 -0.79816902 1.06889
-1.58754 -0.74359202 1.06889
-1.7020299 -0.809569 1.06889
-1.74079 -0.81038302 1.06889
-1.66536 -0.79070199 1.06889
-1.67567 -0.74772298 1.06889
-1.6531399 -0.817532 1.06889
-1.7431901 -0.76619202 1.06889
-1.69089 -0.76091099 1.06889
-1.67729 -0.81069702 1.06889
-1.73139 -0.80359101 1.06889
-1.70362 -0.76520801 1.06889
-1.73335 -0.775563 1.06889
-1.75302 -0.78867197 1.06889
-1.7510999 -0.83283401 1.06889
-1.73356 -0.799173 1.06889
-1.75556 -0.816939 1.06889
-1.63719 -0.73641598 1.06889
-1.66649 -0.80213898 1.06889
-1.6808701 -0.792777 1.06889
-1.71587 -0.75213301 1.06889
-1.69244 -0.82707798 1.06889
-1.7258 -0.87820899 1.06889
-1.67268 -0.72113103 1.06889
-1.6536601 -0.77485901 1.06889
-1.63872 -0.73723602 1.06889
-1.71884 -0.877123 1.06889
-1.75178 -0.90231699 1.06889
-1.75428 -0.80748397 1.06889
-1.7512 -0.76148301 1.06889
-1.70902 -0.74682802 1.06889
-1.72919 -0.85506201 1.06889
-1.7284499 -0.885095 1.06889
-1.66398 -0.83929598 1.06889
-1.73192 -0.79589999 1.06889
-1.72646 -0.89323401 1.06889
-1.62867 -0.73502302 1.06889
-1.69989 -0.83192599 1.06889
-1.61649 -0.763354 1.1016999
-1.64222 -0.75215203 1.1016999
-1.72578 -0.745965 1.1016999
-1.57895 -0.73292398 1.1016999
-1.66998 -0.82673001 1.1016999
-1.73518 -0.897578 1.1016999
-1.65725 -0.81472403 1.1016999
-1.69451 -0.75199997 1.1016999
-1.63429 -0.73505002 1.1016999
-1.67419 -0.77410501 1.1016999
-1.75044 -0.73383498 1.1016999
-1.64718 -0.72040701 1.1016999
-1.74714 -0.77315998 1.1016999
-1.72964 -0.775657 1.1016999
-1.7029001 -0.81426603 1.1016999
-1.63513 -0.721843 1.1016999
-1.67777 -0.73667699 1.1016999
-1.73313 -0.73381603 1.1016999
-1.6052099 -0.74520898 1.1016999
-1.72132 -0.84376502 1.1016999
-1.73976 -0.81329697 1.1016999
-1.72155 -0.85239601 1.1016999
-1.74334 -0.78662902 1.1016999
-1.61835 -0.78792602 1.1016999
-1.60561 -0.76018798 1.1016999
-1.71189 -0.882658 1.1016999
-1.55826 -0.74141198 1.1016999
-1.6408499 -0.746364 1.1016999
-1.61572 -0.79072201 1.1016999
-1.6658601 -0.78696001 1.1016999
-1.6563801 -0.80822903 1.1016999
-1.68098 -0.856094 1.1016999
-1.57978 -0.73365998 1.1016999
-1.68758 -0.74468201 1.1016999
-1.7052 -0.81558198 1.1016999
-1.66052 -0.75649101 1.1016999
-1.6353 -0.75849098 1.1016999
-1.68727 -0.735035 1.1016999
-1.73833 -0.82260299 1.1016999
-1.7122999 -0.76122099 1.1016999
-1.70494 -0.84536999 1.1016999
-1.62335 -0.72139603 1.1016999
-1.7222 -0.79001498 1.1016999
-1.66122 -0.80791497 1.1016999
-1.67312 -0.85267198 1.1016999
-1.70909 -0.774104 1.1016999
-1.7185 -0.84975499 1.1016999
-1.74929 -0.86330402 1.1016999
-1.66119 -0.82115299 1.1016999
-1.74306 -0.827995 1.1016999
-1.68444 -0.75438499 1.1016999
-1.73712 -0.85420501 1.1016999
-1.71091 -0.74216002 1.1016999
-1.66133 -0.78502399 1.1016999
-1.6823 -0.82019597 1.1016999
-1.65807 -0.83433002 1.1016999
-1.66135 -0.83875901 1.1016999
-1.61017 -0.77173603 1.1016999
-1.63853 -0.789437 1.1016999
-1.63861 -0.78944403 1.1016999
-1.57596 -0.72372597 1.1016999
-1.73304 -0.82642001 1.1016999
-1.61691 -0.784334 1.1016999
-1.6035399 -0.76092499 1.1016999
-1.68083 -0.73012501 1.1016999
-1.62802 -0.77419299 1.1016999
-1.62222 -0.806912 1.1016999
-1.60419 -0.77323103 1.1016999
-1.73744 -0.792386 1.1016999
-1.64931 -0.78361702 1.1016999
-1.66061 -0.72148502 1.1016999
-1.68071 -0.83253801 1.1016999
-1.69145 -0.73238802 1.1016999
-1.69348 -0.794671 1.1016999
-1.70048 -0.86350501 1.1016999
-1.60462 -0.72128701 1.1016999
-1.75384 -0.87813503 1.1016999
-1.71527 -0.74787199 1.1016999
-1.7453901 -0.83632702 1.1016999
-1.65529 -0.81969601 1.1016999
-1.71826 -0.80951703 1.1016999
-1.66833 -0.84534001 1.1016999
-1.7454799 -0.73371702 1.1016999
-1.67642 -0.84379399 1.1016999
-1.72672 -0.73633802 1.1016999
-1.71193 -0.76150399 1.1016999
-1.70112 -0.75856203 1.1016999
-1.66416 -0.77254599 1.1016999
-1.64781 -0.77739298 1.1016999
-1.68029 -0.76545697 1.1016999
-1.67036 -0.80837601 1.1016999
-1.61917 -0.79471499 1.1016999
-1.69806 -0.83097798 1.1016999
-1.70622 -0.88861001 1.1016999
-1.59419 -0.769701 1.1016999
-1.68381 -0.72975802 1.1016999
-1.755 -0.81889701 1.1016999
-1.56788 -0.75135499 1.1016999
-1.7480299 -0.74410301 1.1016999
-1.74237 -0.86218703 1.1016999
-1.69968 -0.81276399 1.1016999
-1.58806 -0.75101399 1.1016999
-1.72895 -0.72921902 1.1016999
-1.6942101 -0.86822402 1.1016999
-1.69361 -0.84666598 1.1016999
-1.61871 -0.79700702 1.1016999
-1.64088 -0.79602897 1.1016999
-1.7444201 -0.86735898 1.1016999
-1.68374 -0.83884901 1.1016999
-1.68973 -0.834907 1.1016999
-1.56271 -0.77989 1.1016999
-1.57329 -0.77769703 1.1016999
-1.55232 -0.89507502 1.1016999
-1.6883399 -0.92285901 1.1016999
-1.57067 -0.838287 1.1016999
-1.5746599 -0.81472403 1.1016999
-1.58085 -0.91692901 1.1016999
-1.56178 -0.92005599 1.1016999
-1.64096 -0.922939 1.1016999
-1.60212 -0.89809901 1.1016999
-1.63185 -0.93583101 1.1016999
-1.5901999 -0.83027399 1.1016999
-1.64268 -0.92825598 1.1016999
-1.70108 -0.88911301 1.1016999
-1.62209 -0.81514198 1.1016999
-1.62589 -0.84533602 1.1016999
-1.64222 -0.88731599 1.1016999
-1.59562 -0.79735798 1.1016999
-1.5359401 -0.918984 1.1016999
-1.53694 -0.89150602 1.1016999
-1.61766 -0.93002999 1.1016999
-1.6961 -0.897102 1.1016999
-1.56247 -0.88185 1.1016999
-1.56083 -0.80049902 1.1016999
-1.54422 -0.86084402 1.1016999
-1.6381299 -0.90505302 1.1016999
-1.71866 -0.92105001 1.1016999
-1.62846 -0.83806801 1.1016999
-1.54248 -0.85136199 1.1016999
-1.5520999 -0.80628502 1.1016999
-1.69313 -0.88955301 1.1016999
-1.68197 -0.91490197 1.1016999
-1.7345001 -0.93650699 1.1016999
-1.58306 -0.82303399 1.1016999
-1.5669301 -0.87212402 1.1016999
-1.5971299 -0.81145602 1.1016999
-1.5886199 -0.89404798 1.1016999
-1.5484999 -0.77881902 1.1016999
-1.66513 -0.86353701 1.1016999
-1.6001101 -0.816001 1.1016999
-1.6304801 -0.92620999 1.1016999
-1.57637 -0.780662 1.1016999
-1.59935 -0.93999398 1.1016999
-1.57416 -0.881733 1.1016999
-1.54445 -0.84562898 1.1016999
-1.68626 -0.90829599 1.1016999
-1.59198 -0.87204802 1.1016999
-1.5481 -0.911502 1.1016999
-1.55123 -0.90378797 1.1016999
-1.69661 -0.938357 1.1016999
-1.63499 -0.880898 1.1016999
-1.70197 -0.89152801 1.1016999
-1.64393 -0.92632997 1.1016999
-1.59152 -0.87755197 1.1016999
-1.59295 -0.82598799 1.1016999
-1.6646301 -0.85344702 1.1016999
-1.61687 -0.82589 1.1016999
-1.6456701 -0.915308 1.1016999
-1.6613899 -0.864461 1.1016999
-1.64905 -0.93896699 1.1016999
-1.60155 -0.82145202 1.1016999
-1.66175 -0.92008102 1.1016999
-1.53592 -0.78244001 1.1016999
-1.62953 -0.93037999 1.1016999
-1.57209 -0.77097797 1.1016999
-1.64634 -0.932513 1.1016999
-1.70921 -0.92507398 1.1016999
-1.65229 -0.84885901 1.1016999
-1.6022201 -0.85201102 1.1016999
-1.60715 -0.93196398 1.1016999
-1.54751 -0.93788099 1.1016999
-1.58974 -0.89652503 1.1016999
-1.6741101 -0.91048998 1.1016999
-1.57261 -0.835141 1.1016999
-1.57178 -0.80459797 1.1016999
-1.68381 -0.92285001 1.1016999
-1.53929 -0.91058397 1.1016999
-1.68687 -0.89623803 1.1016999
-1.59733 -0.91324502 1.1016999
-1.57507 -0.80667001 1.1016999
-1.5512201 -0.76104403 1.1016999
-1.6312799 -0.86393797 1.1016999
-1.59958 -0.86636102 1.1016999
-1.5707 -0.78488499 1.1016999
-1.72463 -0.91621399 1.1016999
-1.6147 -0.93923903 1.1016999
-1.67905 -0.90825897 1.1016999
-1.60658 -0.92063999 1.1016999
-1.57987 -0.93693602 1.1016999
-1.68328 -0.87797999 1.1016999
-1.63405 -0.92537397 1.1016999
-1.73592 -0.93492699 1.1016999
-1.62552 -0.83446598 1.1016999
-1.5357 -0.739528 1.1016999
-1.55379 -0.82446897 1.1016999
-1.55361 -0.84487998 1.1016999
-1.54883 -0.75336599 1.1016999
-1.70988 -0.90299797 1.1016999
-1.58321 -0.864546 1.1016999
-1.68047 -0.93350297 1.1016999
-1.56068 -0.82105303 1.1016999
-1.6087 -0.79714698 1.1016999
-1.70135 -0.93663001 1.1016999
-1.57628 -0.922584 1.1016999
-1.61619 -0.917566 1.1016999
-1.58241 -0.87754899 1.1016999
-1.54743 -0.86054999 1.1016999
-1.72247 -0.93904299 1.1016999
-1.55545 -0.78609401 1.1016999
-1.6486501 -0.92009199 1.1016999
-1.75583 -0.80824798 1.09561
-1.75583 -0.80371201 1.0944999
-1.75583 -0.86075902 1.09723
-1.75583 -0.758632 1.09068
-1.75583 -0.74545002 1.08322
-1.75583 -0.77385998 1.09763
-1.75583 -0.81725001 1.08732
-1.75583 -0.72977799 1.1011699
-1.75583 -0.74364501 1.09851
-1.75583 -0.75972497 1.09978
-1.75583 -0.73560101 1.07564
-1.75583 -0.72955698 1.07394
-1.75583 -0.81853497 1.08962
-1.75583 -0.77058899 1.08728
-1.75583 -0.89371097 1.09708
-1.75583 -0.72972798 1.07552
-1.75583 -0.72840399 1.0741301
-1.75583 -0.91755903 1.07838
-1.75583 -0.872509 1.07741
-1.75583 -0.78706902 1.0745699
-1.75583 -0.92319602 1.09071
-1.75583 -0.77559799 1.07252
-1.75583 -0.89647198 1.07408
-1.75583 -0.92411399 1.08856
-1.75583 -0.86797601 1.07702
-1.75583 -0.87188798 1.07105
-1.75583 -0.90299398 1.0865099
-1.75583 -0.79342997 1.0766799
-1.75583 -0.90168202 1.09329
-1.75583 -0.80212498 1.07748
-1.75583 -0.83701801 1.07029
-1.75583 -0.79328799 1.0743001
-1.75583 -0.89349103 1.08121
-1.75583 -0.92934299 1.07551
-1.68799 -0.94071698 1.09834
-1.59119 -0.94071698 1.0945801
-1.73919 -0.94071698 1.0889601
-1.72914 -0.94071698 1.08592
-1.7143199 -0.94071698 1.07908
-1.60528 -0.94071698 1.09166
-1.74891 -0.94071698 1.09359
-1.70274 -0.94071698 1.0948
-1.6385 -0.94071698 1.09026
-1.74718 -0.94071698 1.09104
-1.73851 -0.94071698 1.07511
-1.72453 -0.94071698 1.09012
-1.75274 -0.94071698 1.0884
-1.7445199 -0.94071698 1.09996
-1.6828099 -0.94071698 1.09506
-1.66708 -0.94071698 1.09707
-1.6976399 -0.94071698 1.07392
-1.56986 -0.94071698 1.08328
-1.60741 -0.94071698 1.07287
-1.59644 -0.94071698 1.0834399
-1.56143 -0.94071698 1.0741
-1.55003 -0.94071698 1.0905401
-1.57423 -0.94071698 1.0931799
-1.67461 -0.94071698 1.0803
-1.66484 -0.94071698 1.08215
-1.62167 -0.94071698 1.08778
-1.62251 -0.94071698 1.08026
-1.71457 -0.94071698 1.07002
-1.55318 -0.94071698 1.0819499
-1.595 -0.94071698 1.07823
-1.65137 -0.94071698 1.07511
-1.64674 -0.94071698 1.08173
-1.57977 -0.94071698 1.08451
-1.53536 -0.743186 1.1012501
-1.53536 -0.839477 1.08538
-1.53536 -0.86724699 1.1005
-1.53536 -0.91910398 1.08489
-1.53536 -0.87252802 1.08383
-1.53536 -0.87131703 1.0799201
-1.53536 -0.87412399 1.09508
-1.53536 -0.80650198 1.10101
-1.53536 -0.858226 1.0887901
-1.53536 -0.93681198 1.0925699
-1.53536 -0.72166198 1.10162
-1.53536 -0.85346198 1.0936
-1.53536 -0.78483498 1.09886
-1.53536 -0.84586698 1.09894
-1.53536 -0.92711699 1.07967
-1.53536 -0.904526 1.09645
-1.53536 -0.86739302 1.08034
-1.53536 -0.89003903 1.0752701
-1.53536 -0.72702599 1.08883
-1.53536 -0.74016201 1.08613
-1.53536 -0.77027798 1.0880001
-1.53536 -0.75856501 1.0728199
-1.53536 -0.84556299 1.07157
-1.53536 -0.81014103 1.07174
-1.53536 -0.75526202 1.08849
-1.53536 -0.87622601 1.07744
-1.53536 -0.83652902 1.06975
-1.53536 -0.76408798 1.07578
-1.53536 -0.76364201 1.09437
-1.53536 -0.79931998 1.07189
-1.53536 -0.74807 1.06993
-1.53536 -0.723544 1.07986
-1.53536 -0.77315098 1.09005
-1.53536 -0.82284498 1.08556
-1.57139 -0.72024399 1.08829
-1.66248 -0.72024399 1.10115
-1.57906 -0.72024399 1.0943
-1.57358 -0.72024399 1.09835
-1.53804 -0.72024399 1.09902
-1.5486799 -0.72024399 1.08631
-1.7321301 -0.72024399 1.10065
-1.68618 -0.72024399 1.0952899
-1.56231 -0.72024399 1.0844899
-1.7040499 -0.72024399 1.0996701
-1.55729 -0.72024399 1.09566
-1.7095799 -0.72024399 1.09675
-1.61406 -0.72024399 1.0870301
-1.66742 -0.72024399 1.0957299
-1.624 -0.72024399 1.09751
-1.63389 -0.72024399 1.09303
-1.57016 -0.72024399 1.07892
-1.70586 -0.72024399 1.08751
-1.74537 -0.72024399 1.07915
-1.69968 -0.72024399 1.07243
-1.73668 -0.72024399 1.0838701
-1.75036 -0.72024399 1.08165
-1.75 -0.72024399 1.09971
-1.69651 -0.72024399 1.08831
-1.75288 -0.72024399 1.08227
-1.59228 -0.72024399 1.07355
-1.6242599 -0.72024399 1.0734299
-1.58848 -0.72024399 1.0747
-1.73482 -0.72024399 1.07074
-1.69321 -0.72024399 1.0745699
-1.7308 -0.72024399 1.08418
-1.75554 -0.72024399 1.08275
-1.68055 -0.72024399 1.069
-1.72348 -0.72024399 1.0775
-1.7004499 -0.73223698 1.15748
-1.6531301 -0.73679298 1.15748
-1.73305 -0.74710101 1.15748
-1.58837 -0.73110199 1.15748
-1.64257 -0.735268 1.15748
-1.60525 -0.72374803 1.15748
-1.72457 -0.72908503 1.15748
-1.7186199 -0.74656099 1.15748
-1.6378 -0.74101299 1.15748
-1.7537 -0.743478 1.15748
-1.56782 -0.72038001 1.15748
-1.73474 -0.73855299 1.15748
-1.55417 -0.72301799 1.15748
-1.74113 -0.73942798 1.15748
-1.70735 -0.73185599 1.15748
-1.63911 -0.72455698 1.15748
-1.73878 -0.74221802 1.15748
-1.61788 -0.72662503 1.15748
-1.75016 -0.75127 1.15748
-1.67519 -0.73114598 1.15748
-1.63796 -0.72973698 1.15748
-1.7148 -0.757083 1.15748
-1.7432899 -0.73536199 1.15748
-1.54131 -0.72400701 1.15748
-1.64984 -0.74917001 1.15748
-1.60326 -0.74413699 1.15748
-1.6000201 -0.742769 1.15748
-1.66321 -0.74819899 1.15748
-1.63042 -0.760158 1.15748
-1.61874 -0.75715297 1.15748
-1.59058 -0.73303002 1.15748
-1.53929 -0.75670701 1.15748
-1.60602 -0.75252998 1.15748
-1.68284 -0.75205803 1.15748
-1.62631 -0.76563901 1.15748
-1.63947 -0.76136398 1.15748
-1.5378799 -0.72740602 1.15748
-1.5785201 -0.74673599 1.15748
-1.67091 -0.75805098 1.15748
-1.538 -0.72479099 1.15748
-1.54352 -0.74711901 1.15748
-1.74667 -0.76546103 1.15748
-1.62885 -0.762977 1.15748
-1.5881 -0.73897803 1.15748
-1.5565701 -0.72563702 1.15748
-1.58623 -0.75006801 1.15748
-1.74886 -0.89717299 1.15748
-1.70819 -0.91132098 1.15748
-1.59339 -0.89769101 1.15748
-1.74718 -0.92061102 1.15748
-1.74412 -0.91117901 1.15748
-1.72594 -0.92008901 1.15748
-1.70126 -0.923823 1.15748
-1.6820101 -0.92146301 1.15748
-1.69475 -0.92001998 1.15748
-1.74988 -0.91351998 1.15748
-1.6901799 -0.89504403 1.15748
-1.74376 -0.93401301 1.15748
-1.74748 -0.93043399 1.15748
-1.74762 -0.92552102 1.15748
-1.71931 -0.92220598 1.15748
-1.66164 -0.90928799 1.15748
-1.75034 -0.92183799 1.15748
-1.66019 -0.91249198 1.15748
-1.72971 -0.89629698 1.15748
-1.67302 -0.909661 1.15748
-1.69346 -0.92031598 1.15748
-1.56152 -0.89780003 1.15748
-1.73107 -0.93173498 1.15748
-1.58882 -0.91805899 1.15748
-1.7095799 -0.93323201 1.15748
-1.5716799 -0.92907602 1.15748
-1.55153 -0.91793001 1.15748
-1.5821199 -0.93258703 1.15748
-1.66249 -0.93778098 1.15748
-1.67646 -0.92611802 1.15748
-1.6289099 -0.92644799 1.15748
-1.5447201 -0.93367898 1.15748
-1.6272399 -0.91710401 1.15748
-1.59978 -0.91956002 1.15748
-1.55915 -0.93149698 1.15748
-1.71049 -0.939372 1.15748
-1.54173 -0.92093301 1.15748
-1.5768 -0.91671801 1.15748
-1.58602 -0.932917 1.15748
-1.54137 -0.90922701 1.15748
-1.63069 -0.91657603 1.15748
-1.61853 -0.912763 1.15748
-1.64378 -0.92818803 1.15748
-1.60648 -0.92587501 1.15748
-1.59448 -0.92874002 1.15748
-1.66115 -0.94059199 1.15748
-1.61034 -0.74580401 1.1016999
-1.62345 -0.75913203 1.1016999
-1.60623 -0.75219297 1.1016999
-1.5476 -0.74201 1.1016999
-1.60193 -0.758834 1.1016999
-1.59366 -0.76552802 1.1016999
-1.69339 -0.760234 1.1016999
-1.56293 -0.74651998 1.1016999
-1.61359 -0.75698298 1.1016999
-1.68128 -0.75424898 1.1016999
-1.61052 -0.74026197 1.1016999
-1.6174001 -0.74242002 1.1016999
-1.67693 -0.76141399 1.1016999
-1.70125 -0.766433 1.1016999
-1.54961 -0.73219198 1.1016999
-1.56076 -0.75241101 1.1016999
-1.5594 -0.75772202 1.1016999
-1.6027 -0.75358802 1.1016999
-1.58643 -0.75708503 1.1016999
-1.63369 -0.747316 1.1016999
-1.63967 -0.74815601 1.1016999
-1.69635 -0.764525 1.1016999
-1.7368701 -0.76321602 1.1016999
-1.55678 -0.72096699 1.1016999
-1.71665 -0.74348301 1.1016999
-1.68889 -0.72110701 1.1016999
-1.68293 -0.729761 1.1016999
-1.62484 -0.72532099 1.1016999
-1.73721 -0.76208103 1.1016999
-1.72409 -0.72338402 1.1016999
-1.63499 -0.722489 1.1016999
-1.70741 -0.75337702 1.1016999
-1.58112 -0.722812 1.1016999
-1.71641 -0.72993702 1.1016999
-1.63964 -0.740969 1.1016999
-1.66948 -0.74395299 1.1016999
-1.72149 -0.75277102 1.1016999
-1.7483701 -0.73577303 1.1016999
-1.74623 -0.72142899 1.1016999
-1.75068 -0.74114603 1.1016999
-1.74105 -0.75578302 1.1016999
-1.73584 -0.753959 1.1016999
-1.72183 -0.74446398 1.1016999
-1.73046 -0.73922098 1.1016999
-1.70388 -0.72161603 1.1016999
-1.7174799 -0.73869699 1.1016999
-1.7133 -0.75003701 1.1016999
-1.58306 -0.90765703 1.1016999
-1.5838799 -0.91539401 1.1016999
-1.56161 -0.92462999 1.1016999
-1.59135 -0.92064101 1.1016999
-1.6443599 -0.92031902 1.1016999
-1.61782 -0.91733998 1.1016999
-1.7347 -0.93729901 1.1016999
-1.6060801 -0.91676801 1.1016999
-1.56782 -0.909877 1.1016999
-1.61348 -0.93063402 1.1016999
-1.5391001 -0.91701299 1.1016999
-1.64123 -0.92449999 1.1016999
-1.61321 -0.92427701 1.1016999
-1.54813 -0.92962301 1.1016999
-1.56337 -0.90056401 1.1016999
-1.53685 -0.89770502 1.1016999
-1.59948 -0.91774398 1.1016999
-1.5611399 -0.91775501 1.1016999
-1.56848 -0.90453899 1.1016999
-1.61299 -0.93461299 1.1016999
-1.57418 -0.90701699 1.1016999
-1.57196 -0.917831 1.1016999
-1.63634 -0.91951102 1.1016999
-1.73437 -0.91546398 1.1016999
-1.64531 -0.89635903 1.1016999
-1.75363 -0.91146499 1.1016999
-1.68761 -0.91757399 1.1016999
-1.68463 -0.90707898 1.1016999
-1.55764 -0.89795899 1.1016999
-1.72552 -0.90277898 1.1016999
-1.73006 -0.92205501 1.1016999
-1.69953 -0.89895701 1.1016999
-1.7265199 -0.90116 1.1016999
-1.61447 -0.90022302 1.1016999
-1.74903 -0.89683402 1.1016999
-1.57718 -0.89553702 1.1016999
-1.71127 -0.90285897 1.1016999
-1.69935 -0.89732099 1.1016999
-1.71887 -0.900316 1.1016999
-1.61415 -0.90831298 1.1016999
-1.66828 -0.90349901 1.1016999
-1.7505701 -0.93137997 1.1016999
-1.71538 -0.92607498 1.1016999
-1.66626 -0.899122 1.1016999
-1.6602401 -0.90631902 1.1016999
-1.57705 -0.89670902 1.1016999
-1.63682 -0.72024399 1.14456
-1.57309 -0.72024399 1.15117
-1.56642 -0.72024399 1.1372401
-1.63624 -0.72024399 1.15062
-1.54872 -0.72024399 1.12297
-1.60233 -0.72024399 1.12941
-1.69485 -0.72024399 1.15648
-1.62121 -0.72024399 1.13551
-1.67207 -0.72024399 1.1471699
-1.62878 -0.72024399 1.1289001
-1.56417 -0.72024399 1.12608
-1.73851 -0.72024399 1.1533999
-1.58549 -0.72024399 1.13068
-1.59312 -0.72024399 1.12413
-1.6763999 -0.72024399 1.15021
-1.68636 -0.72024399 1.1403
-1.57526 -0.72024399 1.12421
-1.70428 -0.72024399 1.14837
-1.56775 -0.72024399 1.11217
-1.61297 -0.72024399 1.12672
-1.60587 -0.72024399 1.14035
-1.5446301 -0.72024399 1.12007
-1.6117001 -0.72024399 1.15597
-1.5377001 -0.72024399 1.11283
-1.55329 -0.72024399 1.11772
-1.57337 -0.72024399 1.11279
-1.68169 -0.72024399 1.14342
-1.56586 -0.72024399 1.15662
-1.7226599 -0.72024399 1.11226
-1.72744 -0.72024399 1.11875
-1.62712 -0.72024399 1.10654
-1.64495 -0.72024399 1.1255
-1.62595 -0.72024399 1.1242
-1.72013 -0.72024399 1.10852
-1.7224801 -0.72024399 1.14369
-1.56656 -0.72024399 1.10509
-1.59824 -0.72024399 1.11352
-1.74937 -0.72024399 1.14649
-1.69644 -0.72024399 1.1295201
-1.73031 -0.72024399 1.14645
-1.58193 -0.72024399 1.1061
-1.59737 -0.72024399 1.1133
-1.65642 -0.72024399 1.11745
-1.7039 -0.72024399 1.1154799
-1.75542 -0.72024399 1.11542
-1.5637701 -0.72024399 1.10672
-1.66907 -0.72024399 1.1116199
-1.70362 -0.72024399 1.11453
-1.67695 -0.72024399 1.1253901
-1.73116 -0.72024399 1.12078
-1.72122 -0.72024399 1.14789
-1.6521 -0.72024399 1.12119
-1.6180201 -0.72024399 1.10807
-1.60177 -0.72024399 1.10954
-1.6403199 -0.72024399 1.1139899
-1.55607 -0.72024399 1.1055501
-1.75583 -0.738388 1.14911
-1.75583 -0.74358398 1.1332901
-1.75583 -0.74676502 1.14297
-1.75583 -0.73836702 1.12549
-1.75583 -0.721111 1.1084
-1.75583 -0.75433499 1.1158201
-1.75583 -0.75190598 1.1112601
-1.75583 -0.76531202 1.11625
-1.75583 -0.73865199 1.1095001
-1.75583 -0.75892103 1.1372401
-1.6942 -0.76650399 1.13668
-1.70727 -0.76650399 1.12643
-1.7544301 -0.76650399 1.1366301
-1.6102099 -0.76650399 1.14745
-1.74139 -0.76650399 1.11286
-1.61728 -0.76650399 1.14625
-1.60364 -0.76650399 1.15265
-1.70988 -0.76650399 1.14746
-1.65351 -0.76650399 1.1423399
-1.62307 -0.76650399 1.15179
-1.675 -0.76650399 1.14031
-1.69008 -0.76650399 1.13802
-1.68934 -0.76650399 1.12798
-1.7379301 -0.76650399 1.15267
-1.71841 -0.76650399 1.11121
-1.69427 -0.76650399 1.12801
-1.72392 -0.76650399 1.11121
-1.62494 -0.76650399 1.14078
-1.6572 -0.76650399 1.14504
-1.72214 -0.76650399 1.11786
-1.70498 -0.76650399 1.11988
-1.6748199 -0.76650399 1.13571
-1.73347 -0.76650399 1.15282
-1.67408 -0.76650399 1.13543
-1.6925 -0.76650399 1.12273
-1.72909 -0.76650399 1.1404901
-1.7167 -0.76650399 1.1414599
-1.6040601 -0.76650399 1.11845
-1.54457 -0.76650399 1.10436
-1.5922199 -0.76650399 1.14071
-1.6581 -0.76650399 1.1039799
-1.60715 -0.76650399 1.12915
-1.60411 -0.76650399 1.13606
-1.58963 -0.76650399 1.12672
-1.5664901 -0.76650399 1.10377
-1.62064 -0.76650399 1.1024899
-1.7170399 -0.76650399 1.1080199
-1.62207 -0.76650399 1.12154
-1.5604 -0.76650399 1.13958
-1.58797 -0.76650399 1.11376
-1.5650899 -0.76650399 1.12883
-1.5709 -0.76650399 1.1138
-1.57534 -0.76650399 1.1431
-1.65222 -0.76650399 1.12515
-1.65277 -0.76650399 1.11348
-1.57118 -0.76650399 1.1314501
-1.63956 -0.76650399 1.11832
-1.56173 -0.76650399 1.14665
-1.53598 -0.76650399 1.1036201
-1.63764 -0.76650399 1.1066099
-1.5648299 -0.76650399 1.10219
-1.57078 -0.76650399 1.11531
-1.5980901 -0.76650399 1.13328
-1.5905499 -0.76650399 1.11406
-1.70464 -0.76650399 1.1076699
-1.53536 -0.73703802 1.1496201
-1.53536 -0.73900998 1.15448
-1.53536 -0.73317403 1.14193
-1.53536 -0.735578 1.15222
-1.53536 -0.76409 1.11946
-1.53536 -0.76238501 1.12678
-1.53536 -0.72025597 1.12507
-1.53536 -0.73632503 1.12984
-1.53536 -0.75196397 1.102
-1.53536 -0.741687 1.12595
-1.53536 -0.72456503 1.11318
-1.53536 -0.92357302 1.14583
-1.53536 -0.92631 1.13712
-1.53536 -0.94057 1.13875
-1.53536 -0.91511399 1.1493
-1.53536 -0.92542702 1.12203
-1.53536 -0.89766598 1.1081899
-1.53536 -0.92201298 1.10388
-1.53536 -0.91894299 1.12547
-1.53536 -0.91622901 1.12435
-1.53536 -0.89850903 1.13298
-1.54836 -0.89445698 1.11933
-1.59878 -0.89445698 1.15247
-1.6042399 -0.89445698 1.13854
-1.70149 -0.89445698 1.14658
-1.72297 -0.89445698 1.1506
-1.66977 -0.89445698 1.1400501
-1.73192 -0.89445698 1.15178
-1.68111 -0.89445698 1.14171
-1.54838 -0.89445698 1.14063
-1.65624 -0.89445698 1.1444499
-1.64489 -0.89445698 1.1399699
-1.6954 -0.89445698 1.14631
-1.60563 -0.89445698 1.1519901
-1.56192 -0.89445698 1.1427
-1.54066 -0.89445698 1.1043
-1.66673 -0.89445698 1.14871
-1.59874 -0.89445698 1.15132
-1.5963 -0.89445698 1.1247
-1.6375999 -0.89445698 1.1382
-1.55477 -0.89445698 1.1110899
-1.57816 -0.89445698 1.12669
-1.61395 -0.89445698 1.12893
-1.54439 -0.89445698 1.14592
-1.59182 -0.89445698 1.12309
-1.57271 -0.89445698 1.11558
-1.64994 -0.89445698 1.13083
-1.6201 -0.89445698 1.15215
-1.71237 -0.89445698 1.11248
-1.69181 -0.89445698 1.13793
-1.70672 -0.89445698 1.11046
-1.75406 -0.89445698 1.10344
-1.6795501 -0.89445698 1.1339
-1.72417 -0.89445698 1.13041
-1.7433701 -0.89445698 1.10253
-1.6957901 -0.89445698 1.12549
-1.6772799 -0.89445698 1.13182
-1.6671799 -0.89445698 1.11285
-1.60317 -0.89445698 1.1066999
-1.7364399 -0.89445698 1.14546
-1.67845 -0.89445698 1.10549
-1.71997 -0.89445698 1.14591
-1.74639 -0.89445698 1.13337
-1.74993 -0.89445698 1.10374
-1.67681 -0.89445698 1.13415
-1.67966 -0.89445698 1.1375999
-1.56782 -0.89445698 1.10496
-1.63386 -0.89445698 1.12639
-1.63501 -0.89445698 1.1107301
-1.74169 -0.89445698 1.1309299
-1.60657 -0.89445698 1.11282
-1.68863 -0.89445698 1.1284699
-1.70181 -0.89445698 1.13491
-1.61584 -0.89445698 1.1158
-1.54866 -0.89445698 1.1030101
-1.75583 -0.93060398 1.15562
-1.75583 -0.91212898 1.13919
-1.75583 -0.90168202 1.12923
-1.75583 -0.91351402 1.14451
-1.75583 -0.894822 1.12939
-1.75583 -0.92195499 1.1418999
-1.75583 -0.916224 1.11002
-1.75583 -0.93755299 1.14029
-1.75583 -0.93195701 1.1191
-1.75583 -0.91523701 1.11195
-1.75583 -0.93295503 1.11054
-1.75583 -0.93626899 1.1495301
-1.71664 -0.94071698 1.15257
-1.70375 -0.94071698 1.12053
-1.69416 -0.94071698 1.14266
-1.64645 -0.94071698 1.14263
-1.7151999 -0.94071698 1.13445
-1.70296 -0.94071698 1.1163599
-1.69777 -0.94071698 1.12489
-1.67927 -0.94071698 1.1252
-1.69839 -0.94071698 1.13823
-1.6346 -0.94071698 1.14279
-1.72234 -0.94071698 1.11652
-1.68537 -0.94071698 1.14302
-1.71629 -0.94071698 1.14046
-1.619 -0.94071698 1.14891
-1.70051 -0.94071698 1.12148
-1.727 -0.94071698 1.14937
-1.72628 -0.94071698 1.11703
-1.7056201 -0.94071698 1.12802
-1.70884 -0.94071698 1.14281
-1.6578 -0.94071698 1.15719
-1.65484 -0.94071698 1.1402
-1.73139 -0.94071698 1.11321
-1.61164 -0.94071698 1.14416
-1.70285 -0.94071698 1.15512
-1.64307 -0.94071698 1.13124
-1.6672601 -0.94071698 1.13433
-1.69969 -0.94071698 1.12887
-1.7550499 -0.94071698 1.13258
-1.62314 -0.94071698 1.11406
-1.56409 -0.94071698 1.14781
-1.60469 -0.94071698 1.12901
-1.54847 -0.94071698 1.1232001
-1.6041 -0.94071698 1.13609
-1.6499 -0.94071698 1.12204
-1.59527 -0.94071698 1.10689
-1.6626101 -0.94071698 1.11826
-1.65572 -0.94071698 1.11314
-1.6855 -0.94071698 1.11479
-1.58191 -0.94071698 1.11404
-1.6250401 -0.94071698 1.1204
-1.58478 -0.94071698 1.12538
-1.60905 -0.94071698 1.12918
-1.58792 -0.94071698 1.1231
-1.5698 -0.94071698 1.13661
-1.74493 -0.94071698 1.10265
-1.53947 -0.94071698 1.14879
-1.64218 -0.94071698 1.102
-1.59152 -0.94071698 1.1158201
-1.59229 -0.94071698 1.12016
-1.65117 -0.94071698 1.1048
-1.53765 -0.94071698 1.13897
-1.68646 -0.94071698 1.10454
-1.6250499 -0.94071698 1.12967
-1.63622 -0.94071698 1.12593
-1.6553 -0.94071698 1.11692
-1.60923 -0.94071698 1.11634
-0.57027602 -0.134506 1.06889
-0.511971 -0.117743 1.06889
-0.59669203 -0.173283 1.06889
-0.55332398 -0.107809 1.06889
-0.67656398 -0.0647019 1.06889
-0.61697602 -0.146708 1.06889
-0.536304 -0.113341 1.06889
-0.53510797 -0.203898 1.06889
-0.65902501 -0.108483 1.06889
-0.53528601 -0.152274 1.06889
-0.54871303 -0.17341501 1.06889
-0.52141398 -0.081712797 1.06889
-0.63319302 -0.097909398 1.06889
-0.56115198 -0.218606 1.06889
-0.54999202 -0.103296 1.06889
-0.51308799 -0.128914 1.06889
-0.50382298 -0.191193 1.06889
-0.65938801 -0.068633199 1.06889
-0.53640801 -0.185903 1.06889
-0.562172 -0.14341401 1.06889
-0.52829701 -0.205974 1.06889
-0.55050898 -0.167096 1.06889
-0.52315199 -0.232292 1.06889
-0.53774703 -0.091661103 1.06889
-0.51002598 -0.161135 1.06889
-0.50493199 -0.124175 1.06889
-0.64278698 -0.12843101 1.06889
-0.607822 -0.11668 1.06889
-0.518264 -0.098341301 1.06889
-0.50806499 -0.149151 1.06889
-0.612836 -0.086139902 1.06889
-0.57265103 -0.077512197 1.06889
-0.55146199 -0.066636004 1.06889
-0.54102999 -0.17792501 1.06889
-0.537067 -0.0791329 1.06889
-0.60454798 -0.062994599 1.06889
-0.54025197 -0.156331 1.06889
-0.63571203 -0.062037501 1.06889
-0.69612199 -0.064078398 1.06889
-0.546202 -0.112177 1.06889
-0.64984399 -0.110379 1.06889
-0.55159801 -0.223399 1.06889
-0.59337598 -0.186343 1.06889
-0.54834402 -0.137832 1.06889
-0.58559299 -0.18513501 1.06889
-0.56653303 -0.108977 1.06889
-0.60652798 -0.12704299 1.06889
-0.52824402 -0.15116 1.06889
-0.617953 -0.110391 1.06889
-0.50591701 -0.27609101 1.06889
-0.63132697 -0.069241203 1.06889
-0.65792 -0.111916 1.06889
-0.60130399 -0.13582601 1.06889
-0.50636899 -0.109777 1.06889
-0.60770297 -0.114313 1.06889
-0.52727699 -0.114879 1.06889
-0.553258 -0.088941798 1.06889
-0.618792 -0.099866003 1.06889
-0.70251 -0.075608201 1.06889
-0.57668602 -0.12588701 1.06889
-0.62181503 -0.10917 1.06889
-0.66206098 -0.069651999 1.06889
-0.52923399 -0.136631 1.06889
-0.604357 -0.15552901 1.06889
-0.59725302 -0.15199301 1.06889
-0.53361201 -0.183065 1.06889
-0.55277902 -0.093864597 1.06889
-0.652789 -0.117897 1.06889
-0.64103901 -0.088645898 1.06889
-0.56200498 -0.126748 1.06889
-0.51709801 -0.220889 1.06889
-0.50495702 -0.20897 1.06889
-0.63218802 -0.079815596 1.06889
-0.68163699 -0.062774099 1.06889
-0.50635898 -0.107973 1.06889
-0.503169 -0.26364601 1.06889
-0.61198801 -0.111238 1.06889
-0.554802 -0.22006799 1.06889
-0.58164901 -0.159283 1.06889
-0.59474802 -0.172997 1.06889
-0.54143101 -0.196485 1.06889
-0.55360198 -0.096798196 1.06889
-0.55391097 -0.218023 1.06889
-0.59412599 -0.0944677 1.06889
-0.57850701 -0.13145199 1.06889
-0.52404702 -0.20476399 1.06889
-0.61416698 -0.161706 1.06889
-0.56310803 -0.156712 1.06889
-0.63095403 -0.094130501 1.06889
-0.55485201 -0.065700002 1.06889
-0.53569603 -0.200517 1.06889
-0.65454298 -0.069400303 1.06889
-0.541623 -0.176732 1.06889
-0.51933199 -0.26037699 1.06889
-0.573636 -0.12769 1.06889
-0.57888502 -0.112398 1.06889
-0.53848702 -0.077216402 1.06889
-0.55705202 -0.100327 1.06889
-0.55609 -0.12072 1.06889
-0.55240101 -0.20615 1.06889
-0.53549701 -0.16604801 1.06889
-0.50723398 -0.076109 1.06889
-0.51532602 -0.0907868 1.06889
-0.53734601 -0.14278799 1.06889
-0.64201802 -0.100837 1.06889
-0.69375098 -0.088746302 1.06889
-0.65714699 -0.101973 1.06889
-0.51756603 -0.24877299 1.06889
-0.58904099 -0.13232499 1.06889
-0.57301497 -0.0998144 1.06889
-0.66926599 -0.13429099 1.06889
-0.63726598 -0.24023201 1.06889
-0.68646801 -0.26298499 1.06889
-0.72066802 -0.120641 1.06889
-0.63695002 -0.21777999 1.06889
-0.629574 -0.22910701 1.06889
-0.58864897 -0.21732201 1.06889
-0.66641599 -0.156789 1.06889
-0.66889203 -0.152695 1.06889
-0.644898 -0.15131301 1.06889
-0.62466103 -0.27089399 1.06889
-0.557854 -0.25342101 1.06889
-0.72069299 -0.27173099 1.06889
-0.678895 -0.19987901 1.06889
-0.63264501 -0.16345599 1.06889
-0.71267098 -0.225152 1.06889
-0.66873002 -0.26836601 1.06889
-0.699624 -0.237239 1.06889
-0.67181897 -0.25301 1.06889
-0.603643 -0.215133 1.06889
-0.55487901 -0.25473899 1.06889
-0.66964102 -0.113446 1.06889
-0.69600803 -0.16384999 1.06889
-0.61253202 -0.28024101 1.06889
-0.646505 -0.240348 1.06889
-0.658113 -0.196468 1.06889
-0.64393401 -0.27403101 1.06889
-0.63867301 -0.229306 1.06889
-0.67201298 -0.151384 1.06889
-0.67810303 -0.155917 1.06889
-0.659455 -0.158224 1.06889
-0.70755202 -0.25402999 1.06889
-0.61577302 -0.20481899 1.06889
-0.67636001 -0.241851 1.06889
-0.57019502 -0.234567 1.06889
-0.680224 -0.24555799 1.06889
-0.66591197 -0.198439 1.06889
-0.58999902 -0.209883 1.06889
-0.68333298 -0.19050901 1.06889
-0.68206 -0.161917 1.06889
-0.523408 -0.25984699 1.06889
-0.59236801 -0.25348899 1.06889
-0.54606497 -0.27134901 1.06889
-0.57833701 -0.25440699 1.06889
-0.72033 -0.272926 1.06889
-0.62609601 -0.207866 1.06889
-0.53898102 -0.274207 1.06889
-0.61634099 -0.25420901 1.06889
-0.69650799 -0.25157601 1.06889
-0.65804601 -0.21894901 1.06889
-0.65398401 -0.27155101 1.06889
-0.70269501 -0.141148 1.06889
-0.61303198 -0.215827 1.06889
-0.643677 -0.178808 1.06889
-0.70941699 -0.222748 1.06889
-0.67243701 -0.22379901 1.06889
-0.66940999 -0.17457999 1.06889
-0.67045403 -0.14920001 1.06889
-0.713085 -0.091022998 1.06889
-0.58836901 -0.233338 1.06889
-0.66041303 -0.142179 1.06889
-0.69676298 -0.141711 1.06889
-0.641536 -0.16594601 1.06889
-0.71359599 -0.243406 1.06889
-0.60867 -0.24878301 1.06889
-0.68844998 -0.214176 1.06889
-0.70518798 -0.113642 1.06889
-0.63331401 -0.270051 1.06889
-0.64187002 -0.169085 1.06889
-0.69486302 -0.27191401 1.06889
-0.633398 -0.18244299 1.06889
-0.66604799 -0.265549 1.06889
-0.694197 -0.22256599 1.06889
-0.71707398 -0.197763 1.06889
-0.67073202 -0.273821 1.06889
-0.70124203 -0.197218 1.06889
-0.669231 -0.146028 1.06889
-0.72156602 -0.118174 1.06889
-0.65029299 -0.17264 1.06889
-0.72199303 -0.23669 1.06889
-0.55809599 -0.267059 1.06889
-0.65995699 -0.17067701 1.06889
-0.61428702 -0.18059599 1.06889
-0.71231699 -0.070777699 1.06889
-0.70881099 -0.19438501 1.06889
-0.69145399 -0.14592101 1.06889
-0.71006203 -0.18494099 1.06889
-0.69480699 -0.165493 1.06889
-0.71618402 -0.160723 1.06889
-0.60996801 -0.27200601 1.06889
-0.53286302 -0.274261 1.06889
-0.70599598 -0.230783 1.06889
-0.62118101 -0.24276499 1.06889
-0.64647597 -0.220394 1.06889
-0.62730801 -0.165429 1.06889
-0.66510302 -0.20679501 1.06889
-0.711613 -0.18988299 1.06889
-0.64262801 -0.143875 1.06889
-0.652403 -0.277457 1.06889
-0.61847597 -0.25965801 1.06889
-0.60721201 -0.211492 1.06889
-0.59742701 -0.225082 1.06889
-0.619923 -0.19765399 1.06889
-0.697321 -0.26290399 1.06889
-0.60473901 -0.238904 1.06889
-0.65567702 -0.141174 1.06889
-0.65002698 -0.152454 1.06889
-0.62778997 -0.226035 1.06889
-0.71233499 -0.101113 1.06889
-0.70600301 -0.110581 1.06889
-0.62718803 -0.27789599 1.06889
-0.56762999 -0.166675 1.0164
-0.55184299 -0.17147 1.0164
-0.55685502 -0.18090899 1.0164
-0.58593899 -0.195948 1.0164
-0.54739398 -0.152318 1.0164
-0.62219 -0.096258201 1.0164
-0.55618 -0.18463001 1.0164
-0.58980399 -0.191127 1.0164
-0.55230999 -0.19389001 1.0164
-0.56559497 -0.111018 1.0164
-0.55410397 -0.100799 1.0164
-0.57104701 -0.12776899 1.0164
-0.55489999 -0.160097 1.0164
-0.557697 -0.20607699 1.0164
-0.55040699 -0.17691401 1.0164
-0.65564901 -0.122019 1.0164
-0.55361998 -0.0953767 1.0164
-0.56455398 -0.135728 1.0164
-0.62975502 -0.112898 1.0164
-0.53632599 -0.17132001 1.0164
-0.57108599 -0.14114299 1.0164
-0.55119097 -0.14835601 1.0164
-0.68182898 -0.101014 1.0164
-0.636298 -0.12749299 1.0164
-0.57672298 -0.103784 1.0164
-0.54551703 -0.16207799 1.0164
-0.57242101 -0.13730299 1.0164
-0.55722898 -0.131402 1.0164
-0.57244599 -0.15539899 1.0164
-0.54482299 -0.158599 1.0164
-0.61315 -0.111663 1.0164
-0.54329199 -0.137356 1.0164
-0.61431301 -0.15964 1.0164
-0.58965701 -0.189915 1.0164
-0.60226202 -0.138428 1.0164
-0.64228702 -0.099263199 1.0164
-0.66747499 -0.094939001 1.0164
-0.61843002 -0.096064001 1.0164
-0.55277598 -0.191329 1.0164
-0.54795998 -0.16484199 1.0164
-0.622756 -0.110778 1.0164
-0.54118001 -0.237982 1.0164
-0.56156099 -0.110487 1.0164
-0.613253 -0.112494 1.0164
-0.555785 -0.122646 1.0164
-0.648112 -0.096066698 1.0164
-0.55975002 -0.110934 1.0164
-0.563492 -0.141176 1.0164
-0.562675 -0.205966 1.0164
-0.57457501 -0.097313099 1.0164
-0.55006403 -0.182088 1.0164
-0.56309098 -0.095061302 1.0164
-0.57278401 -0.128106 1.0164
-0.60179597 -0.18840501 1.0164
-0.64970702 -0.210372 1.0164
-0.68145198 -0.219072 1.0164
-0.65489501 -0.196447 1.0164
-0.61204702 -0.21733899 1.0164
-0.62601203 -0.217022 1.0164
-0.682217 -0.133176 1.0164
-0.60265899 -0.22165699 1.0164
-0.67864698 -0.149039 1.0164
-0.60442901 -0.206707 1.0164
-0.580015 -0.22072899 1.0164
-0.61437798 -0.21323401 1.0164
-0.65614802 -0.206967 1.0164
-0.67934602 -0.18441799 1.0164
-0.59013402 -0.204891 1.0164
-0.67276299 -0.166556 1.0164
-0.612836 -0.188196 1.0164
-0.61459798 -0.190244 1.0164
-0.68626201 -0.200128 1.0164
-0.58758497 -0.222396 1.0164
-0.60822701 -0.23660301 1.0164
-0.64081502 -0.18756101 1.0164
-0.65448397 -0.195553 1.0164
-0.65908802 -0.15218499 1.0164
-0.59974599 -0.201573 1.0164
-0.58007097 -0.22734401 1.0164
-0.66579002 -0.200572 1.0164
-0.66675001 -0.230023 1.0164
-0.67292899 -0.172343 1.0164
-0.665286 -0.153107 1.0164
-0.61803401 -0.20394699 1.0164
-0.60925698 -0.19652499 1.0164
-0.67996597 -0.20782 1.0164
-0.60893399 -0.234897 1.0164
-0.54431802 -0.23894601 1.0164
-0.663436 -0.135143 1.0164
-0.678747 -0.111251 1.0164
-0.59845698 -0.219357 1.0164
-0.67099798 -0.14019699 1.0164
-0.62637001 -0.157409 1.0164
-0.65043199 -0.136997 1.0164
-0.62800503 -0.182704 1.0164
-0.63009 -0.191975 1.0164
-0.61771798 -0.17730901 1.0164
-0.65950102 -0.14992701 1.0164
-0.59653002 -0.201353 1.0164
-0.65215701 -0.18427899 1.0164
-0.67357498 -0.18936799 1.0164
-0.66282701 -0.208921 1.0164
-0.665537 -0.21083701 1.0164
-0.68658501 -0.236837 1.0164
-0.62820202 -0.17965101 1.0164
-0.63356 -0.235339 1.0164
-0.50821602 -0.123173 1.05901
-0.52058798 -0.18034901 1.0397
-0.51561397 -0.170734 1.04747
-0.51466602 -0.179888 1.04895
-0.503775 -0.200626 1.06595
-0.52640897 -0.198976 1.03062
-0.52015901 -0.22203401 1.04037
-0.50310099 -0.202178 1.067
-0.50510198 -0.124245 1.06387
-0.51407498 -0.22288699 1.04987
-0.50856298 -0.161272 1.05847
-0.50462699 -0.25677499 1.06462
-0.50715703 -0.165471 1.06067
-0.50484699 -0.183082 1.06427
-0.513156 -0.124313 1.0513
-0.50779402 -0.142208 1.05967
-0.52406901 -0.20160601 1.03427
-0.51930201 -0.216446 1.04171
-0.50447702 -0.19403 1.06485
-0.51558 -0.15985499 1.04752
-0.51825899 -0.18584999 1.04334
-0.51524401 -0.173298 1.04804
-0.50510901 -0.122085 1.0638601
-0.51935703 -0.17814399 1.04162
-0.50909001 -0.179396 1.05765
-0.511136 -0.16998801 1.05445
-0.51903999 -0.22745299 1.04212
-0.519382 -0.25888699 1.04158
-0.52347898 -0.25281399 1.03519
-0.510225 -0.13561399 1.05588
-0.51647198 -0.21945199 1.0461299
-0.51790899 -0.109787 1.04388
-0.529199 -0.145485 1.02626
-0.52572501 -0.182818 1.03168
-0.53427303 -0.094070002 1.01834
-0.52837199 -0.14805301 1.02755
-0.53338498 -0.224852 1.01973
-0.51693797 -0.124803 1.0454
-0.515966 -0.116432 1.0469199
-0.52135801 -0.087893799 1.0385
